-0.078504 0.173166 -0.042306 0.813983 -0.498302 -0.231497 
-0.051687 0.103897 0.040754 -0.114328 -0.404177 -0.906497 
-0.002550 0.038379 0.019656 0.203118 0.966168 -0.128728 
0.022453 0.080062 -0.026052 -0.449905 -0.052132 0.891411 
-0.091756 0.128792 0.031569 0.959312 -0.256108 -0.115459 
-0.046673 0.072993 -0.016782 0.335769 0.335932 0.872728 
-0.039588 0.035235 0.021614 -0.155880 0.976907 0.140610 
-0.059238 0.058830 0.018559 0.257326 0.923516 -0.284376 
0.031273 0.072860 -0.019832 -0.749098 0.158102 0.643107 
-0.038148 0.163555 0.000366 -0.769944 0.133923 -0.610547 
-0.082748 0.110659 0.031102 0.474454 0.873502 0.024064 
-0.003622 0.130340 0.021812 0.064720 -0.980600 -0.183229 
-0.068620 0.168094 -0.053802 0.887878 0.136787 0.438407 
0.036120 0.078009 0.038303 -0.768108 -0.010344 -0.639681 
-0.037644 0.081826 0.043528 -0.033665 0.198248 -0.970194 
-0.035071 0.119929 0.029658 -0.161604 -0.694455 -0.696907 
0.026210 0.052003 0.039586 -0.438696 0.468099 -0.764890 
0.027815 0.060944 -0.021561 -0.741153 0.048896 0.665410 
0.036462 0.103231 0.030666 -0.739722 -0.384057 -0.552462 
0.042673 0.041921 0.022943 -0.420957 0.846277 -0.326263 
0.004238 0.096462 0.052375 -0.242335 -0.638845 -0.727043 
-0.085643 0.108396 0.020516 0.932544 0.094502 -0.320603 
-0.036148 0.078862 -0.020329 0.601246 0.439265 0.655119 
-0.063082 0.126170 -0.008599 -0.151956 -0.105994 0.981902 
-0.033744 0.033927 0.018294 0.195120 0.974460 -0.044806 
-0.030506 0.118219 0.030561 0.004843 -0.760181 -0.648213 
-0.060515 0.043494 0.014050 0.348560 -0.754620 -0.555840 
0.056298 0.051737 0.004909 -0.834504 0.425906 0.341914 
-0.008251 0.130352 0.016315 0.153734 -0.986645 -0.052101 
-0.082611 0.147854 0.037084 0.493600 -0.693279 -0.524631 
-0.044764 0.059309 0.039107 0.515749 0.071487 -0.853341 
-0.053476 0.033580 0.009236 -0.115736 0.989315 -0.060477 
-0.045291 0.085347 0.044011 -0.448477 0.107064 -0.884486 
-0.045020 0.148042 0.006540 -0.642738 0.473074 -0.601676 
-0.086229 0.100617 0.002646 0.934154 -0.217595 0.282205 
-0.071757 0.134987 -0.007874 0.231975 -0.141921 0.961833 
-0.008425 0.038241 -0.025753 -0.102229 0.206949 0.971995 
0.012693 0.128215 -0.000658 -0.289354 -0.870383 0.397561 
0.001769 0.037803 0.036514 0.250488 0.528886 0.810684 
-0.051139 0.076398 0.043133 0.134758 0.325961 -0.933640 
-0.053348 0.046847 0.023329 0.724711 -0.530824 0.415183 
0.029014 0.119433 0.024422 -0.629511 -0.718784 -0.291905 
-0.050997 0.132691 -0.002057 -0.700576 -0.318563 0.635517 
-0.010900 0.115760 -0.016372 -0.008409 -0.498503 0.866671 
-0.007687 0.063082 -0.035574 -0.083035 0.119433 0.986075 
-0.075901 0.160048 -0.027920 0.606188 0.719463 0.338340 
-0.045014 0.033697 -0.001302 -0.025230 0.999652 0.000880 
-0.077161 0.068522 0.014239 0.568183 0.821218 -0.043397 
0.008354 0.064500 -0.031903 -0.282007 0.145408 0.944805 
-0.012990 0.042435 0.050627 -0.317893 -0.150859 -0.933804 
0.035491 0.088022 -0.016966 -0.605216 -0.193393 0.770631 
-0.036068 0.035049 0.019589 0.459713 0.884678 0.060845 
-0.011077 0.086483 0.057137 0.062720 -0.181507 -0.980242 
-0.040632 0.156040 -0.009591 0.226821 0.479522 0.846070 
-0.027313 0.122517 -0.005718 -0.001487 -0.925500 0.377618 
0.002234 0.104082 -0.021879 -0.141624 -0.265015 0.951963 
0.041870 0.100966 0.018982 -0.910739 -0.385955 -0.146687 
-0.077594 0.155669 0.014233 0.184790 -0.979282 0.082139 
0.016393 0.063205 -0.028976 -0.367437 0.246137 0.896522 
-0.062613 0.083809 0.044173 -0.059850 0.217589 -0.972807 
0.003239 0.105395 -0.021289 -0.115128 -0.376725 0.919001 
-0.052292 0.034509 0.042178 -0.013268 0.998383 -0.046337 
-0.062547 0.149869 -0.016937 -0.973200 0.216065 0.067282 
-0.040792 0.120558 0.028837 0.211849 -0.706500 -0.674555 
0.048487 0.043477 0.018386 -0.517833 0.836516 -0.175626 
0.023895 0.034440 0.006492 -0.029662 0.996490 0.041707 
-0.093222 0.121103 0.037587 0.998250 -0.035181 0.026817 
-0.047501 0.110462 -0.018021 -0.116582 -0.419916 0.899350 
-0.070326 0.156089 0.024311 0.039454 -0.989037 -0.139121 
-0.022946 0.088170 -0.036855 0.249713 -0.383151 0.888779 
-0.075172 0.148043 -0.014416 0.803688 0.572521 0.151527 
-0.055734 0.087096 0.044826 0.204405 -0.009283 -0.978203 
-0.063085 0.100970 0.042178 0.120680 -0.216241 -0.967625 
0.003258 0.131265 0.018794 0.024195 -0.988441 -0.149520 
-0.064629 0.140348 0.040037 -0.859151 -0.029511 -0.509569 
-0.078151 0.127901 -0.006697 0.517885 -0.110986 0.846816 
-0.013121 0.063486 -0.036783 -0.186146 0.175312 0.963259 
-0.077129 0.110888 -0.005062 0.718716 -0.333445 0.604124 
-0.007625 0.038682 0.001291 -0.024913 0.999124 0.033350 
-0.007295 0.058076 -0.033770 -0.050604 0.383986 0.921237 
0.026502 0.122939 0.014303 -0.616825 -0.786647 -0.024017 
-0.037721 0.084192 -0.022081 0.326191 0.137843 0.931740 
-0.018981 0.118765 -0.012223 0.098371 -0.782598 0.610582 
-0.008172 0.038808 -0.003328 -0.038867 0.999031 0.019209 
-0.042369 0.123451 0.024317 0.122758 -0.845023 -0.514460 
-0.011335 0.084555 -0.038611 -0.185845 -0.050448 0.980748 
-0.091405 0.132208 0.010149 0.909033 -0.351744 0.213095 
-0.014764 0.177329 -0.020226 -0.628817 -0.285054 -0.723038 
0.060801 0.065385 0.011805 -0.985870 -0.126909 0.104039 
-0.053770 0.063561 -0.009091 0.623936 0.327939 0.696445 
0.012218 0.122166 0.034103 -0.266395 -0.601822 -0.752563 
0.000930 0.067738 -0.033849 -0.233981 -0.068207 0.963543 
0.025056 0.123965 0.016592 -0.586752 -0.808163 -0.043014 
0.013839 0.074086 0.053944 -0.375369 0.189647 -0.906839 
-0.031291 0.153782 -0.005617 -0.314047 0.918025 0.240402 
-0.078915 0.138858 -0.004665 0.564650 -0.034443 0.818873 
-0.048178 0.089958 -0.021842 0.062668 -0.062946 0.995416 
0.007630 0.062774 0.055256 -0.357169 0.204139 -0.906866 
0.057139 0.067932 0.003493 -0.631154 -0.465625 0.605757 
0.032152 0.084044 -0.019269 -0.378417 -0.010418 0.925043 
0.042614 0.069196 -0.003010 -0.933391 0.189028 0.304095 
-0.065015 0.044374 -0.000439 0.437779 -0.820447 0.367326 
0.001514 0.070322 0.056312 -0.249090 0.160837 -0.954397 
-0.061636 0.155145 -0.022458 -0.992666 0.098730 -0.015105 
0.058640 0.054196 0.010338 -0.924032 0.352815 0.146154 
-0.015700 0.119706 0.035487 0.317742 -0.644852 -0.693627 
-0.013974 0.036015 0.042055 0.142839 0.686777 0.693903 
0.000750 0.126440 -0.006140 0.019163 -0.840916 0.539817 
-0.033659 0.035466 0.033796 -0.572406 0.796937 0.142657 
0.023038 0.038813 0.037019 -0.707794 0.653891 -0.265560 
-0.091570 0.115911 0.008888 0.869598 0.358264 0.336338 
-0.032883 0.035673 0.049107 0.492048 0.720157 -0.470583 
-0.067336 0.175120 -0.047700 -0.574769 -0.688492 -0.439201 
0.059019 0.068960 0.008090 -0.854073 -0.417204 0.301374 
0.038260 0.098979 0.030875 -0.795451 -0.348047 -0.495900 
-0.060787 0.129253 -0.007690 -0.295254 -0.081809 0.951638 
-0.019205 0.176599 -0.023404 0.569712 0.127484 0.809885 
-0.052910 0.134990 0.030631 -0.662277 -0.506201 -0.552172 
-0.035336 0.077071 0.041871 -0.208907 0.061949 -0.974671 
-0.056396 0.100033 -0.020067 0.425695 -0.278524 0.860044 
-0.055059 0.048065 0.028750 0.523899 -0.805053 0.262758 
-0.064816 0.173040 -0.060759 0.583127 0.090781 0.802250 
-0.063040 0.096901 -0.017905 0.252134 -0.251429 0.932486 
-0.091421 0.144186 0.022027 0.987067 0.106691 -0.104783 
0.022259 0.121910 0.029456 -0.459019 -0.749689 -0.474092 
-0.025189 0.107545 0.040705 0.274163 -0.466828 -0.840585 
0.051783 0.045618 0.009956 -0.654151 0.746042 0.121845 
-0.077647 0.097327 -0.010873 0.700440 -0.271290 0.659824 
-0.075270 0.114275 -0.005874 0.528851 0.039538 0.841922 
0.012574 0.096247 0.049389 -0.250526 -0.556770 -0.791698 
-0.024144 0.180558 -0.018861 0.669966 -0.372660 0.641201 
-0.011218 0.129377 0.020058 0.252284 -0.951417 -0.176111 
-0.005102 0.119511 0.037959 0.090991 -0.598369 -0.795625 
-0.007028 0.125466 -0.008396 0.142683 -0.791518 0.588899 
-0.057118 0.034596 0.043816 0.013807 0.974800 -0.217462 
0.017423 0.034389 -0.000476 -0.114066 0.990237 0.075812 
-0.025834 0.090238 -0.034089 0.540291 -0.552458 0.632897 
-0.042581 0.033606 -0.017690 -0.036973 0.998854 -0.028136 
0.007298 0.099471 -0.022386 -0.093010 -0.608450 0.787053 
-0.033433 0.047633 -0.022734 0.286250 -0.918074 0.271962 
0.007535 0.085255 0.056234 -0.303724 0.003450 -0.949096 
-0.029270 0.073629 -0.033609 0.748072 0.323198 0.579259 
0.022612 0.123658 0.025621 -0.437517 -0.815445 -0.378037 
-0.053372 0.066192 0.035965 0.083118 0.706246 -0.701865 
0.010179 0.118524 0.036830 -0.260504 -0.388950 -0.883482 
0.007412 0.034350 -0.015415 0.110314 0.934740 -0.299102 
-0.062550 0.040078 0.042745 0.717563 -0.258894 -0.644691 
0.015021 0.127668 0.024814 -0.383136 -0.880127 -0.278431 
0.016413 0.091222 -0.026661 -0.493825 -0.524089 0.692177 
-0.067918 0.034961 0.012828 0.573253 0.592725 -0.497394 
-0.003214 0.097457 0.052723 0.013822 -0.735288 -0.676332 
-0.083339 0.099808 -0.004341 0.788404 -0.160670 0.590588 
-0.018145 0.043391 -0.027859 -0.184301 -0.070945 0.975846 
0.050477 0.044986 0.007033 -0.645819 0.749673 0.142655 
-0.006728 0.087619 0.057123 -0.037296 -0.023531 -0.998774 
-0.060212 0.034449 0.040007 0.020847 0.999411 -0.022252 
-0.033469 0.174167 -0.001988 -0.329983 -0.392440 -0.846298 
-0.040853 0.033891 -0.014271 -0.220351 0.971512 -0.084351 
0.036310 0.108176 -0.003151 -0.840108 -0.433331 0.324378 
-0.019499 0.118380 0.035032 0.277289 -0.632326 -0.723176 
-0.090114 0.137091 0.022652 0.960618 -0.007094 -0.274874 
0.053534 0.056624 0.028178 -0.637367 0.215238 -0.737577 
-0.064102 0.034440 0.033321 0.166235 0.980254 -0.035742 
-0.000194 0.076110 0.058236 -0.363923 0.004558 -0.926030 
-0.037171 0.034745 0.041476 0.102920 0.966731 -0.193392 
-0.068702 0.172978 -0.041405 -0.514664 -0.803972 -0.296953 
-0.007857 0.038902 -0.006123 -0.031337 0.999019 0.030989 
-0.075653 0.146523 0.042731 0.110082 -0.719889 -0.684886 
-0.062332 0.164745 -0.048963 -0.997372 0.058332 -0.036274 
0.003605 0.123192 -0.010587 0.089860 -0.761430 0.640537 
-0.018131 0.068551 0.053491 0.465302 0.256974 -0.846482 
0.002227 0.078900 0.056918 -0.416373 0.021767 -0.905824 
0.026855 0.058836 0.043282 -0.559323 0.300571 -0.771134 
-0.049095 0.148016 0.010773 -0.762237 0.194082 -0.613137 
0.008626 0.094088 -0.029369 -0.345621 -0.656011 0.670797 
-0.011441 0.125513 0.029919 0.212467 -0.836791 -0.504331 
0.041516 0.103332 0.014783 -0.906868 -0.404913 -0.115952 
-0.032592 0.064092 -0.017758 0.889638 0.286819 0.354107 
0.012842 0.054688 -0.029115 -0.297846 0.251297 0.917709 
-0.066888 0.173535 -0.045676 -0.601462 -0.712793 -0.356453 
-0.049629 0.096095 0.044327 0.037986 -0.182328 -0.970892 
-0.023263 0.182500 -0.010810 -0.640086 -0.170336 -0.727288 
-0.049978 0.044543 0.043479 -0.249792 -0.635325 -0.730036 
0.034942 0.088604 0.040026 -0.776033 -0.033686 -0.628878 
-0.014842 0.034714 0.046324 0.004043 0.999351 0.008532 
-0.007976 0.123344 -0.010294 0.184018 -0.643773 0.741588 
-0.045760 0.040068 -0.016377 0.838914 -0.448967 0.306018 
-0.056471 0.034156 0.027373 -0.006222 0.998885 -0.044097 
-0.043774 0.105446 -0.020554 0.045377 -0.308624 0.947349 
0.036478 0.043965 -0.004557 -0.186948 0.514325 0.836475 
0.042207 0.042932 -0.000303 -0.505175 0.699530 0.505323 
-0.062241 0.154355 0.030090 -0.110122 -0.961009 -0.253492 
0.050041 0.072583 0.008379 0.054514 -0.956190 0.285504 
-0.069557 0.042345 0.005190 0.764574 -0.637715 0.085056 
-0.062005 0.063712 0.028693 0.261572 0.872265 -0.412147 
-0.048412 0.137594 0.011611 -0.951722 -0.302933 0.029643 
-0.079116 0.107737 -0.005293 0.653821 -0.403207 0.639556 
-0.050686 0.114682 0.034183 -0.076529 -0.593420 -0.800295 
-0.079124 0.169689 -0.039072 0.954598 -0.007207 0.019416 
-0.000278 0.038367 -0.024963 -0.121900 0.075726 0.986226 
0.046430 0.075588 0.007558 -0.990438 -0.108255 0.078930 
0.028604 0.063549 0.042906 -0.608890 0.031349 -0.791243 
0.036565 0.038359 0.020299 -0.350122 0.902320 -0.250482 
0.010226 0.105561 -0.020150 -0.224167 -0.169336 0.958924 
-0.044803 0.052630 -0.010636 0.284267 0.142291 0.947736 
-0.084742 0.088256 -0.003087 0.883163 0.114358 0.450962 
-0.054461 0.047485 0.040758 0.011096 -0.885061 -0.462536 
-0.087342 0.096238 0.003311 0.935456 0.035011 0.333192 
0.028642 0.071388 0.042534 -0.546557 0.272227 -0.790918 
-0.023582 0.160657 -0.002747 -0.370944 -0.436919 -0.789327 
-0.067707 0.151872 0.036217 -0.030942 -0.842122 -0.537817 
0.013172 0.035101 0.014720 -0.172830 0.979133 0.105089 
-0.056677 0.045508 0.025458 0.472549 -0.781432 0.406967 
-0.031029 0.099840 -0.022843 0.171659 -0.124188 0.976968 
-0.062357 0.144145 -0.006409 -0.888676 0.017924 0.443510 
0.038424 0.038149 0.015688 -0.386731 0.911480 -0.139661 
-0.075284 0.167089 -0.023710 0.568846 -0.734480 -0.361016 
-0.057042 0.045176 0.013882 0.347940 -0.782182 -0.516776 
-0.067770 0.134167 0.046116 -0.797800 -0.184238 -0.573444 
0.002750 0.081046 0.056886 -0.255602 0.137540 -0.953894 
-0.049953 0.139707 0.017004 -0.915936 -0.339517 -0.213819 
0.017711 0.035008 0.031432 -0.105826 0.994070 -0.015926 
0.055629 0.050893 0.004467 -0.787213 0.503195 0.352420 
-0.047585 0.122655 -0.011111 0.074794 -0.698065 0.711883 
-0.081175 0.144472 0.042267 0.471724 -0.638878 -0.607595 
-0.071498 0.081784 -0.016057 0.447745 0.291874 0.843032 
0.040946 0.096437 0.027701 -0.857167 -0.279306 -0.432328 
-0.084490 0.105060 0.025782 0.828975 -0.351101 -0.433147 
-0.047826 0.125095 -0.008305 0.132278 -0.799467 0.585537 
-0.002232 0.096240 -0.031241 -0.134616 -0.810621 0.566395 
-0.093106 0.126663 0.027279 0.955935 -0.136808 -0.256495 
-0.025734 0.051728 -0.026779 0.645681 0.195747 0.736387 
-0.044012 0.071187 -0.017393 0.297639 0.308147 0.901609 
-0.066577 0.038703 0.014002 0.655547 -0.456289 -0.595580 
-0.071216 0.066543 0.024610 0.549718 0.767435 -0.328572 
-0.072479 0.121877 -0.008334 0.203732 0.013872 0.978627 
-0.013560 0.124879 0.029902 0.291581 -0.837550 -0.460225 
-0.050269 0.146876 0.012173 -0.893230 0.075558 -0.440072 
-0.079106 0.093133 0.035387 0.706143 -0.066246 -0.702238 
0.047223 0.073089 0.017523 -0.525209 -0.715605 -0.379001 
-0.049793 0.162538 0.005887 0.216991 -0.681584 -0.692130 
0.006634 0.038807 0.045584 -0.131432 -0.015313 -0.991184 
0.016864 0.053424 0.047478 -0.237746 0.484572 -0.840293 
-0.020677 0.098224 -0.024432 0.115179 -0.417394 0.892197 
-0.075512 0.164371 -0.036323 0.559464 0.709359 0.424280 
-0.030684 0.076709 0.041175 0.179686 0.226694 -0.938022 
-0.040116 0.048346 -0.012222 0.280475 -0.752964 0.588617 
-0.031752 0.058395 -0.014762 0.932044 0.277875 0.224076 
-0.040560 0.149761 0.003180 -0.605207 0.613240 -0.495654 
-0.027644 0.157569 -0.010944 -0.162537 0.795128 0.583851 
-0.071603 0.163119 -0.043799 0.936781 0.205587 0.281602 
0.014807 0.035845 0.004016 -0.095882 0.849776 -0.502899 
-0.078734 0.097700 0.035275 0.628182 -0.181819 -0.755429 
0.046361 0.042507 0.005170 -0.494138 0.835395 0.240524 
-0.063225 0.153349 -0.009715 -0.911157 -0.328881 -0.245947 
-0.059983 0.126401 -0.007871 -0.287037 -0.176989 0.941028 
-0.030902 0.038396 -0.016364 -0.161627 0.914034 -0.352255 
-0.065813 0.115072 -0.010546 0.394720 -0.491553 0.775472 
-0.073450 0.177213 -0.045700 -0.129132 -0.866536 -0.477606 
0.058026 0.063664 0.023747 -0.850171 -0.079546 -0.516551 
-0.020494 0.097548 -0.025028 0.172942 -0.624186 0.722305 
-0.071878 0.037905 0.002554 0.910327 -0.403105 0.092516 
0.008512 0.081297 0.055294 -0.307393 0.054078 -0.944439 
0.039783 0.070467 -0.010277 -0.843346 0.021010 0.533085 
-0.055014 0.046599 0.042087 0.021586 -0.821655 -0.564781 
0.047789 0.062639 -0.002995 0.087522 -0.547545 0.830523 
-0.054969 0.110394 0.037323 0.009146 -0.628095 -0.777943 
-0.049396 0.156439 -0.006042 0.549790 0.087936 0.829578 
-0.056557 0.063572 0.031262 0.162530 0.871796 -0.461520 
-0.080185 0.089036 0.034599 0.781699 -0.041342 -0.622094 
-0.046568 0.098185 0.043045 -0.240063 -0.264195 -0.933182 
-0.035417 0.176655 -0.006710 0.477915 -0.863301 -0.147738 
-0.065905 0.069396 -0.010223 0.448778 0.716968 0.532851 
-0.074964 0.152913 -0.019343 0.968547 -0.220030 0.108883 
-0.038936 0.034178 0.027098 -0.024762 0.995627 0.036586 
-0.085524 0.103827 0.002694 0.920695 -0.226585 0.317469 
-0.064178 0.152620 -0.002387 -0.703438 -0.688303 0.075485 
-0.074286 0.178695 -0.047926 0.018802 -0.869986 -0.486973 
0.021921 0.111342 -0.014240 -0.488334 -0.330777 0.807309 
-0.060770 0.067293 -0.010594 0.176807 0.831450 0.526277 
0.013103 0.035141 -0.020044 -0.359580 0.808765 0.452142 
-0.026805 0.096594 -0.024432 0.215610 -0.323917 0.914202 
0.037050 0.038845 0.001503 -0.320903 0.878036 0.353520 
0.058831 0.055654 0.008539 -0.915032 0.342055 0.212627 
-0.076077 0.155354 0.008865 0.179670 -0.975951 0.120458 
-0.059361 0.101471 0.042480 0.123147 -0.264065 -0.955023 
-0.075850 0.086601 -0.013874 0.682911 0.044738 0.727198 
-0.045888 0.090002 -0.022011 0.083600 -0.031758 0.994828 
-0.061722 0.155744 -0.028024 -0.988092 0.146323 0.044550 
-0.034522 0.126098 -0.000334 -0.369586 -0.895692 0.245622 
-0.087263 0.105719 0.016353 0.902637 -0.405488 -0.139053 
0.015538 0.111583 -0.017015 -0.421819 -0.306715 0.852768 
-0.075779 0.155556 0.024214 0.144968 -0.977356 -0.153729 
-0.024510 0.038260 0.027840 -0.029544 0.998366 -0.048572 
0.039531 0.064147 -0.008385 -0.875036 0.259497 0.407714 
0.038515 0.103434 0.027618 -0.835839 -0.310864 -0.451437 
-0.023849 0.088299 -0.036534 0.311470 -0.404887 0.858662 
-0.010142 0.038543 0.004583 -0.031539 0.999107 0.027832 
-0.045496 0.035574 0.044057 -0.199824 0.711625 -0.646914 
-0.047917 0.124088 -0.009535 0.130929 -0.749895 0.648073 
0.021336 0.098546 0.046221 -0.331822 -0.353069 -0.873202 
-0.089971 0.133957 0.037083 0.990962 -0.123987 -0.037018 
-0.057282 0.036049 0.046128 0.148356 0.577450 -0.775551 
-0.086232 0.084134 0.020469 0.889825 0.400286 -0.207711 
0.036535 0.071274 0.036955 -0.767204 0.067297 -0.636652 
-0.061537 0.157978 -0.025792 -0.996096 -0.065316 -0.022388 
0.008023 0.036527 -0.007452 0.708155 0.634830 0.301411 
-0.034247 0.094698 -0.023631 0.105109 -0.201110 0.973709 
0.033172 0.114428 -0.000781 -0.742344 -0.583334 0.327988 
0.001251 0.039089 0.028945 -0.050016 0.996817 -0.061587 
-0.011033 0.168348 -0.017570 -0.647913 -0.463971 -0.590956 
-0.042780 0.168764 -0.009030 0.642953 -0.341513 0.684372 
-0.048445 0.084942 -0.021682 -0.000496 0.092618 0.994841 
-0.042379 0.045708 0.041188 -0.060459 -0.476770 -0.876184 
-0.058872 0.096514 -0.020121 0.549933 -0.167404 0.815966 
-0.087202 0.106371 0.012921 0.925330 -0.367480 0.059449 
-0.074959 0.077317 -0.010177 0.689993 0.328158 0.642075 
-0.026331 0.090615 -0.033226 0.581026 -0.600641 0.547710 
0.022056 0.086801 0.048989 -0.342001 -0.180724 -0.919313 
-0.058174 0.033410 -0.001532 -0.002350 0.999848 -0.015068 
0.026984 0.104523 0.038695 -0.436929 -0.420637 -0.792806 
-0.007114 0.119911 0.037402 0.113435 -0.594193 -0.796058 
-0.026436 0.034777 0.044067 -0.048512 0.997425 0.038124 
-0.014438 0.183170 -0.027531 0.457468 -0.338987 0.798601 
-0.017824 0.101421 0.043721 0.028426 -0.191964 -0.980372 
-0.043153 0.086497 0.043005 -0.315514 -0.048276 -0.936121 
-0.068895 0.168895 -0.053533 0.879137 0.178474 0.441389 
0.010022 0.041927 0.045105 -0.107560 -0.083490 -0.990648 
-0.011445 0.038812 -0.006243 -0.018706 0.999428 0.027358 
-0.068530 0.043447 0.002560 0.682016 -0.716589 0.128400 
-0.046667 0.033605 0.024055 -0.045586 0.998247 0.029461 
-0.049082 0.093188 0.044325 -0.103068 0.087065 -0.987354 
-0.072464 0.105546 -0.011518 0.468078 -0.363530 0.805100 
-0.049775 0.074038 -0.016842 -0.035687 0.579271 0.813280 
-0.001608 0.038186 -0.025109 -0.107211 0.128192 0.983725 
-0.040102 0.065107 0.041574 0.115656 0.084970 -0.987896 
-0.086304 0.091854 0.027010 0.826189 0.088324 -0.555485 
-0.000071 0.108590 -0.020824 -0.295658 -0.307005 0.903197 
-0.058391 0.048005 0.007506 0.582042 -0.743531 -0.322762 
-0.023564 0.126394 0.015064 0.284512 -0.945135 -0.159954 
0.019705 0.102662 0.044656 -0.374706 -0.533297 -0.757744 
0.036666 0.088565 0.037583 -0.841526 0.015753 -0.539709 
-0.030324 0.037122 0.026848 -0.584680 0.779340 -0.204090 
0.036335 0.098948 -0.010969 -0.736856 -0.131450 0.661975 
-0.050918 0.059276 -0.009980 0.552548 0.271635 0.787912 
-0.073074 0.147542 -0.021780 0.715070 0.676471 0.172509 
-0.003448 0.038878 0.029378 -0.037675 0.997111 -0.065941 
-0.002663 0.110861 0.042613 -0.010060 -0.293376 -0.955176 
0.054167 0.058512 -0.002093 -0.699938 0.102356 0.701314 
0.042231 0.087575 -0.007744 -0.928710 -0.000429 0.370067 
-0.086421 0.082296 0.009753 0.987141 0.111264 0.113427 
-0.055524 0.061790 0.027918 0.240705 0.885487 -0.393792 
-0.039931 0.152142 0.004303 -0.573043 0.368246 -0.731692 
-0.054082 0.142064 -0.001195 -0.552820 -0.074314 0.827122 
-0.013408 0.122066 0.033939 0.278976 -0.731600 -0.621337 
-0.069883 0.178263 -0.049587 -0.426691 -0.740105 -0.519405 
-0.072279 0.095865 -0.015110 0.389392 -0.163284 0.905899 
-0.087058 0.145162 0.008440 0.714535 0.191554 0.671183 
0.013283 0.124975 0.030855 -0.318813 -0.730149 -0.600990 
-0.077068 0.094956 -0.012378 0.659354 -0.188312 0.726690 
0.021058 0.065947 0.047629 -0.648675 0.208672 -0.730118 
0.021164 0.041372 0.041684 -0.603006 0.168495 -0.774721 
-0.065112 0.165146 -0.025079 -0.716697 -0.659453 -0.224809 
0.054078 0.065534 0.027016 -0.419076 -0.374610 -0.825491 
-0.047513 0.075192 -0.017496 0.024037 0.425554 0.902470 
-0.003287 0.112275 -0.019888 -0.137967 -0.642680 0.748468 
-0.018282 0.162577 -0.007456 -0.395537 -0.668517 -0.617360 
-0.031657 0.053037 -0.012825 0.920620 -0.021516 0.381482 
-0.081357 0.077587 0.026443 0.731365 0.641991 -0.228589 
0.023391 0.109676 0.038017 -0.222191 -0.513013 -0.828792 
-0.083487 0.098717 -0.004331 0.802750 -0.083773 0.588195 
-0.006556 0.050596 0.051498 0.179055 0.566581 -0.801717 
-0.008002 0.115312 0.040295 0.041338 -0.477203 -0.876894 
-0.068529 0.154066 0.031695 -0.001320 -0.931459 -0.363615 
-0.048808 0.106771 -0.019361 0.043011 -0.299928 0.950228 
-0.038268 0.044164 0.041166 0.211748 -0.442388 -0.863022 
-0.059594 0.078557 0.042999 0.293356 0.199461 -0.934654 
-0.058836 0.111756 0.036490 -0.075160 -0.363228 -0.912828 
-0.049236 0.034582 0.014265 -0.288929 0.938380 0.186570 
-0.016408 0.053741 0.049974 0.361216 0.391409 -0.840043 
-0.093418 0.118029 0.022224 0.907543 0.385853 -0.158660 
-0.024847 0.075386 0.049154 0.825194 0.421622 -0.375814 
-0.063577 0.159291 -0.048494 -0.929985 0.361965 0.061749 
-0.051241 0.052689 0.013789 0.784128 0.000577 -0.615820 
0.035718 0.037311 0.005046 -0.323163 0.922453 0.210764 
-0.031662 0.171829 -0.004439 -0.789796 0.335128 -0.513449 
0.032667 0.116851 0.018681 -0.746518 -0.662257 -0.063982 
-0.026364 0.034869 0.047347 0.004835 0.999755 -0.020504 
-0.010828 0.107945 0.043094 0.138434 -0.198770 -0.968940 
-0.075589 0.154235 -0.017816 0.787942 0.518750 0.291389 
0.018351 0.035446 0.037783 -0.367154 0.912530 -0.161285 
-0.001063 0.069023 -0.034383 -0.249462 0.196290 0.944716 
-0.050087 0.141961 0.014110 -0.942415 -0.278828 -0.183965 
-0.060531 0.087883 0.045134 -0.113962 0.192562 -0.972494 
-0.071078 0.063081 0.017749 0.541853 0.815701 -0.191325 
-0.046316 0.120918 -0.012737 0.032588 -0.627119 0.778155 
-0.006689 0.130495 0.017955 0.142810 -0.986692 -0.076182 
-0.001756 0.038920 0.028856 -0.049251 0.996745 -0.062995 
-0.060977 0.087051 0.044985 -0.083024 0.267346 -0.959538 
0.011132 0.071228 -0.031982 -0.295987 0.083201 0.947693 
-0.020522 0.106646 -0.022338 0.024677 -0.308178 0.948404 
0.033916 0.114782 0.002096 -0.792624 -0.575481 0.198978 
0.031582 0.110223 -0.008917 -0.635910 -0.459244 0.619833 
0.039348 0.082373 -0.012665 -0.845833 0.186156 0.498703 
0.030558 0.052032 0.036985 -0.565011 0.419465 -0.705010 
-0.041361 0.151965 -0.006709 0.041728 0.626488 0.777856 
-0.053584 0.143956 0.025271 -0.942349 -0.215691 -0.254052 
0.011360 0.096977 -0.024311 -0.207300 -0.747193 0.630356 
0.022785 0.082971 0.049604 -0.498569 -0.166077 -0.847679 
-0.052526 0.130180 0.033635 -0.655531 -0.363777 -0.661476 
-0.036379 0.151134 -0.003254 -0.415757 0.888330 0.192552 
-0.039452 0.061330 -0.012364 -0.026194 0.399495 0.915035 
-0.015856 0.061095 -0.036039 0.136512 0.255460 0.956632 
0.047604 0.043459 0.004616 -0.519145 0.811030 0.266945 
0.026352 0.035218 0.019599 -0.197778 0.964197 -0.176173 
-0.044024 0.103803 0.041490 -0.126242 -0.253244 -0.953123 
0.018747 0.076480 0.052252 -0.498109 0.125223 -0.853950 
-0.066085 0.040334 0.013155 0.637915 -0.523153 -0.564296 
-0.027347 0.051847 -0.024894 0.826064 0.111714 0.549015 
0.054558 0.049829 0.003786 -0.725732 0.578922 0.369987 
0.047170 0.043460 0.003793 -0.501756 0.807045 0.311073 
-0.070990 0.039826 0.003265 0.884501 -0.454540 0.102875 
-0.053295 0.056979 0.015562 0.309801 0.947127 -0.036578 
-0.020092 0.050484 -0.029937 0.391304 0.355176 0.848425 
-0.055457 0.107448 -0.018344 0.191410 -0.134070 0.972288 
-0.062488 0.143681 0.037715 -0.578225 0.068428 -0.811719 
-0.064046 0.139694 -0.007302 -0.296572 -0.042316 0.949960 
-0.015377 0.054294 -0.033304 0.104853 0.420657 0.900819 
0.008754 0.039663 0.045284 -0.143626 -0.004751 -0.989559 
0.008246 0.052930 0.052160 -0.210626 0.285714 -0.931733 
0.015942 0.034619 -0.006712 -0.150794 0.987751 0.035736 
-0.056910 0.048853 0.008835 0.752023 -0.480980 -0.445425 
-0.062800 0.148692 -0.016331 -0.949377 0.288109 0.109703 
-0.064678 0.142535 0.039874 -0.783281 -0.079983 -0.614998 
-0.071634 0.075364 -0.012416 0.569986 0.530224 0.627501 
-0.045838 0.069069 0.040638 0.353255 0.390505 -0.849803 
-0.054701 0.066516 0.036106 0.124666 0.720493 -0.679891 
0.015311 0.122311 -0.008948 -0.385652 -0.757946 0.525593 
-0.075035 0.066490 0.007627 0.715978 0.689591 0.090885 
-0.009308 0.048105 0.048825 0.086449 0.598280 -0.773628 
0.032282 0.056384 -0.014087 -0.702666 0.415158 0.575782 
-0.069654 0.041407 0.008220 0.674520 -0.513855 -0.516849 
-0.068035 0.144432 0.042800 -0.511417 -0.421212 -0.743929 
-0.012129 0.107494 -0.021923 0.217850 -0.429588 0.875672 
-0.030709 0.065533 -0.024541 0.922403 0.328317 0.196232 
-0.022708 0.105329 0.042484 0.112169 -0.415608 -0.900927 
0.014916 0.109209 0.040353 -0.072432 -0.504025 -0.856498 
0.021162 0.035257 0.026280 -0.242910 0.960134 -0.128355 
-0.033216 0.059258 0.038598 -0.401573 0.196429 -0.894449 
-0.001132 0.102692 0.044112 0.060484 -0.105760 -0.986097 
-0.043544 0.068386 0.041208 0.260807 0.287292 -0.919953 
-0.087193 0.084862 0.005945 0.840091 0.539015 0.014188 
0.019531 0.038141 -0.013183 -0.855212 0.496984 0.146507 
-0.058059 0.057750 0.014668 0.228637 0.969638 -0.080226 
-0.040896 0.057060 -0.011479 -0.144566 0.148424 0.977531 
0.022983 0.034438 0.006793 0.113984 0.983890 -0.045879 
-0.042182 0.033987 -0.008928 -0.307129 0.948607 -0.047874 
-0.036287 0.127802 0.006968 -0.259893 -0.963875 0.054930 
-0.005785 0.129212 0.025464 0.110415 -0.933327 -0.339754 
-0.012380 0.092628 -0.035644 -0.033120 -0.575092 0.816136 
-0.068860 0.153498 -0.049142 0.221877 0.816780 0.514736 
0.036269 0.082880 0.037742 -0.784555 -0.020382 -0.618437 
-0.045905 0.106568 0.040344 0.090960 -0.418428 -0.901754 
-0.084742 0.151960 0.027579 0.426518 -0.852946 -0.300500 
0.004548 0.034619 0.041170 0.005201 0.999658 0.015734 
-0.033093 0.178119 -0.008034 0.492236 -0.865016 -0.073582 
-0.071324 0.034221 0.002864 0.530836 0.830209 -0.026464 
0.051443 0.066362 0.027479 -0.161726 -0.544585 -0.822114 
0.046230 0.082952 0.010154 -0.996130 -0.080940 -0.027636 
-0.074927 0.066610 0.014598 0.703491 0.709356 -0.035479 
-0.057743 0.157289 0.007836 0.440140 -0.807000 -0.387754 
-0.043704 0.169559 0.000673 0.347308 -0.813607 -0.463137 
-0.085006 0.130093 -0.001931 0.687473 -0.322242 0.650611 
-0.080860 0.145412 0.041501 0.459125 -0.656819 -0.597898 
-0.032090 0.102864 0.041744 0.205377 -0.465043 -0.860211 
-0.033015 0.069014 -0.020199 0.879632 0.330814 0.340625 
-0.026712 0.115485 0.033614 0.165268 -0.661093 -0.726943 
-0.079359 0.075191 0.026496 0.780238 0.528909 -0.333514 
-0.037470 0.090075 -0.023782 0.197852 0.027859 0.978399 
-0.083301 0.153567 0.010613 0.358395 -0.911022 0.202287 
-0.066547 0.060354 0.010230 0.315947 0.941472 0.117177 
-0.071410 0.087523 0.041544 0.427961 0.095279 -0.897830 
-0.010512 0.049922 -0.031243 -0.010205 0.498342 0.866619 
0.002179 0.035263 0.038362 0.255073 0.787955 0.556227 
-0.065183 0.059616 0.012909 0.316513 0.947733 0.010385 
0.026874 0.116465 0.031186 -0.427907 -0.651708 -0.624903 
-0.074813 0.146676 -0.011577 0.793427 0.562647 0.229872 
-0.033750 0.050061 -0.012602 0.362549 -0.891582 0.239435 
-0.033943 0.042540 0.048003 0.754286 -0.451371 -0.473773 
-0.054789 0.036078 0.046425 -0.019739 0.617794 -0.774275 
-0.057297 0.033392 -0.005756 0.008968 0.999949 -0.002451 
0.034088 0.075722 -0.016327 -0.795840 0.106458 0.594503 
-0.007265 0.043641 0.048371 -0.282461 -0.327124 -0.901137 
-0.083958 0.149431 0.004362 0.758222 -0.168279 0.611840 
-0.010192 0.124435 0.032103 0.186346 -0.820876 -0.539045 
0.001084 0.100909 0.045519 -0.037200 -0.885669 -0.459294 
-0.063762 0.151554 -0.032176 -0.803121 0.544700 0.239314 
-0.027246 0.038483 0.032278 -0.059866 0.994712 -0.080881 
-0.088610 0.125264 0.046300 0.663363 -0.196334 -0.721519 
-0.050967 0.080650 0.044116 -0.092233 0.142278 -0.982863 
-0.053821 0.117428 0.035099 -0.645506 0.263877 -0.709943 
-0.019057 0.185088 -0.022259 0.714759 -0.418679 0.559851 
-0.031132 0.115834 0.032948 0.072384 -0.667863 -0.740081 
-0.001568 0.048526 0.050399 0.104987 0.723078 -0.682263 
-0.064917 0.129072 0.045096 -0.754361 -0.465585 -0.462708 
-0.050761 0.048391 0.038701 -0.006130 -0.834987 -0.548732 
-0.007612 0.129126 0.000691 0.180003 -0.950710 0.252080 
-0.022437 0.076323 -0.038685 0.276102 0.013327 0.958969 
0.035951 0.081612 -0.016672 -0.684924 0.265336 0.675838 
-0.038016 0.105468 -0.020257 0.024121 -0.102583 0.993990 
-0.027601 0.114743 0.034198 0.069738 -0.674635 -0.734739 
0.022482 0.034898 0.021396 -0.086739 0.991433 -0.083750 
-0.028782 0.035940 0.013876 -0.770228 0.625184 0.117042 
-0.049539 0.035147 0.044837 -0.129333 0.883720 -0.438972 
-0.075982 0.094649 0.038383 0.686679 -0.153948 -0.710245 
-0.071972 0.140544 -0.007530 0.296191 0.292467 0.900118 
0.025038 0.076311 0.047747 -0.675509 0.236513 -0.697517 
-0.069568 0.042273 0.007147 0.716631 -0.628859 -0.244079 
-0.006567 0.039074 -0.011178 -0.024061 0.999319 0.010350 
-0.000609 0.037872 0.003123 0.548682 0.777292 0.304843 
-0.062111 0.162369 -0.031773 -0.945282 -0.321525 -0.047591 
-0.011765 0.069147 0.054839 0.339423 0.253256 -0.904344 
-0.061690 0.154838 -0.024079 -0.986546 0.153695 0.027116 
-0.008033 0.037714 -0.015711 0.126733 0.624170 -0.766820 
-0.006590 0.038414 0.014247 0.011464 0.999766 0.014549 
0.022779 0.125565 0.013379 -0.518595 -0.854701 -0.013351 
-0.042913 0.034564 0.039506 -0.020541 0.997305 -0.064361 
-0.017961 0.100814 -0.023933 -0.055271 -0.210855 0.975643 
-0.066822 0.152185 -0.044422 -0.654476 0.705873 0.211688 
-0.004280 0.039125 -0.011478 -0.015965 0.998270 -0.019602 
-0.069794 0.067653 -0.004212 0.559991 0.647556 0.515732 
-0.067150 0.076379 -0.016295 0.405466 0.395309 0.823663 
-0.071769 0.082681 -0.016182 0.452729 0.182352 0.870849 
-0.006667 0.074825 -0.037146 -0.266462 0.225716 0.935879 
0.011723 0.069535 -0.031438 -0.146633 0.275967 0.944788 
-0.084217 0.136991 0.000295 0.629859 -0.260641 0.730469 
-0.079245 0.102192 0.033161 0.677218 -0.259437 -0.688477 
0.011661 0.041913 0.044957 -0.103472 -0.080459 -0.991304 
-0.025138 0.172673 -0.019619 0.433229 0.088426 0.894166 
0.009526 0.072009 0.055413 -0.390634 0.127292 -0.909525 
-0.040174 0.111183 -0.018195 0.132953 -0.506909 0.851342 
0.022609 0.106565 -0.016173 -0.207257 -0.497453 0.842128 
-0.063296 0.132095 -0.008085 -0.197017 -0.176249 0.964148 
-0.024371 0.157268 -0.003315 -0.475045 0.700345 -0.522098 
0.004120 0.042240 -0.024263 -0.111177 0.285915 0.949302 
0.014491 0.034728 0.026642 -0.022866 0.998953 -0.037125 
0.014377 0.053998 -0.028363 -0.237918 0.373949 0.895417 
-0.054461 0.064938 0.034109 0.155846 0.817348 -0.554377 
-0.062344 0.152398 -0.026856 -0.951953 0.295320 0.078403 
0.016187 0.128912 0.009982 -0.390058 -0.920031 0.031602 
-0.085273 0.119110 0.048812 0.292436 0.152061 -0.938845 
0.031858 0.117665 0.019241 -0.729056 -0.680505 -0.070210 
0.060773 0.065581 0.015150 -0.991294 -0.100394 -0.077527 
0.045823 0.083966 0.015374 -0.993455 -0.094286 -0.064276 
-0.035303 0.167731 -0.001516 -0.810489 0.342244 -0.475222 
0.033826 0.096047 0.038594 -0.650693 -0.362531 -0.666860 
-0.017665 0.128279 0.014068 0.261274 -0.964349 -0.035356 
-0.026181 0.124868 0.018566 0.184432 -0.919730 -0.346367 
0.012709 0.119537 0.035634 -0.210367 -0.461524 -0.861702 
0.040707 0.094845 0.029095 -0.865793 -0.217231 -0.450324 
-0.026175 0.093228 0.045537 0.503026 -0.462075 -0.712998 
-0.009448 0.111076 0.042366 0.119432 -0.408346 -0.904186 
-0.048485 0.053931 0.035724 0.765651 -0.143038 -0.626226 
-0.064400 0.165858 -0.029652 -0.786088 -0.593987 -0.168210 
0.015838 0.036158 -0.018786 -0.609278 0.639735 0.463155 
-0.063392 0.109837 0.037777 -0.038981 -0.329497 -0.938523 
-0.055904 0.125202 0.038968 -0.640349 -0.198883 -0.738985 
0.010318 0.076031 0.055296 -0.388008 -0.035100 -0.919000 
0.008999 0.035012 0.043432 -0.094040 0.902087 -0.380641 
-0.030815 0.036033 -0.018935 -0.172225 0.621719 -0.762870 
0.018292 0.085376 0.050477 -0.272479 -0.362962 -0.890866 
-0.000789 0.129281 0.026113 0.036523 -0.924139 -0.378988 
0.015190 0.114229 -0.015860 -0.348383 -0.434922 0.830267 
-0.046679 0.052183 -0.009826 0.359169 0.173642 0.914685 
0.001361 0.060398 0.055911 0.012137 0.495697 -0.867700 
0.013762 0.101556 0.047163 -0.167703 -0.402717 -0.894616 
0.058667 0.070925 0.012959 -0.747827 -0.656386 0.043046 
0.023539 0.109544 -0.014126 -0.359039 -0.459659 0.811062 
-0.092711 0.125277 0.010045 0.945708 -0.115772 0.301205 
-0.063236 0.122975 0.046103 -0.889489 -0.091765 -0.446046 
-0.066572 0.133597 -0.008357 -0.084390 -0.101585 0.990446 
-0.000347 0.035198 0.013842 0.541341 0.836549 -0.066882 
-0.069006 0.156377 0.020426 0.001259 -0.999824 -0.011855 
-0.030636 0.050576 -0.018427 0.732508 -0.594884 0.268843 
-0.030217 0.162225 -0.003109 -0.137985 -0.782441 -0.606471 
0.037504 0.069769 0.035878 -0.744819 -0.047822 -0.665396 
-0.009888 0.036619 0.040519 0.207817 0.551984 0.807216 
-0.088184 0.088366 0.021584 0.895153 0.346643 -0.278004 
0.052110 0.062164 0.029245 -0.383342 -0.222650 -0.894417 
-0.039523 0.128138 0.002481 -0.177490 -0.978526 0.104109 
-0.078946 0.166864 -0.035738 0.921169 0.307495 0.159780 
-0.051446 0.135144 0.028227 -0.739442 -0.538523 -0.402929 
-0.073311 0.169481 -0.026805 0.231434 -0.896487 -0.366558 
-0.055417 0.117965 0.037051 -0.620252 0.404819 -0.670264 
0.028433 0.045458 0.035173 -0.721820 0.441927 -0.528149 
0.014202 0.038240 -0.021749 -0.441115 0.336791 0.829485 
0.014159 0.035824 0.011063 -0.175917 0.975729 0.129316 
-0.016704 0.066864 -0.037895 0.012785 0.204702 0.977123 
-0.047760 0.135806 0.014025 -0.914877 -0.400259 -0.039358 
0.013504 0.120867 -0.011899 -0.339463 -0.698246 0.629827 
-0.085628 0.152632 0.011183 0.459657 -0.843363 0.269844 
-0.067034 0.043957 0.001016 0.479035 -0.784577 0.391034 
-0.050052 0.134519 0.026333 -0.770039 -0.535081 -0.346250 
-0.002010 0.129772 0.000268 0.084695 -0.941169 0.325207 
0.008270 0.129189 0.025842 -0.120444 -0.916037 -0.379732 
-0.034833 0.075447 0.041780 -0.199839 0.004506 -0.977973 
0.028802 0.088784 -0.021075 -0.572541 -0.130036 0.809226 
-0.028165 0.092570 -0.026977 0.665889 -0.638184 0.383492 
-0.029444 0.078377 0.042750 0.803872 0.256886 -0.535030 
-0.053461 0.084851 -0.021538 0.041714 -0.003171 0.998929 
0.021856 0.069478 0.048343 -0.615300 0.318805 -0.719067 
-0.031380 0.125455 0.002614 -0.316351 -0.920403 0.224886 
-0.010486 0.097566 -0.029264 0.026886 -0.909402 0.412041 
-0.019194 0.186735 -0.017526 -0.096561 -0.878733 -0.404393 
-0.078220 0.112789 0.046973 0.336129 0.627100 -0.699836 
-0.023686 0.038005 0.018117 -0.043079 0.998968 -0.000298 
-0.071274 0.089558 0.041739 0.338570 0.018191 -0.939157 
-0.064548 0.175897 -0.052699 -0.744027 -0.505195 -0.435466 
-0.052481 0.106313 -0.019082 0.160591 -0.214737 0.961887 
-0.085650 0.152033 0.009514 0.560417 -0.752400 0.338329 
-0.072201 0.155947 0.010293 0.041464 -0.993394 0.103151 
-0.040190 0.172056 -0.009428 0.645431 -0.522456 0.551428 
-0.067696 0.127379 -0.008950 -0.057338 0.056637 0.996565 
0.021381 0.037255 0.037151 -0.623813 0.754312 -0.196720 
-0.083315 0.152605 0.027690 0.384393 -0.876965 -0.286125 
0.026823 0.095469 0.044210 -0.570294 -0.386818 -0.724446 
-0.017377 0.171916 -0.022816 0.429158 0.443447 0.786149 
0.058092 0.058283 0.022804 -0.809500 0.176615 -0.559771 
0.000435 0.050609 -0.030566 -0.180430 0.083623 0.975323 
-0.059419 0.092025 -0.020056 0.542469 -0.077646 0.835749 
-0.069806 0.146181 -0.024105 0.141658 0.950889 0.262163 
-0.074859 0.165735 -0.020414 0.521074 -0.765466 -0.370098 
0.018171 0.059861 0.048930 -0.252161 0.049476 -0.965400 
-0.018029 0.164005 -0.009561 -0.212680 -0.785970 -0.580365 
-0.020363 0.035304 0.051912 -0.105748 0.877185 -0.441556 
-0.056826 0.146522 0.031574 -0.728469 -0.152339 -0.664197 
-0.019330 0.045400 0.052159 -0.302500 -0.411564 -0.857510 
0.041346 0.077933 -0.007221 -0.822092 0.034398 0.567804 
-0.050400 0.092600 -0.021697 -0.085101 0.001213 0.995996 
0.035855 0.111626 0.001525 -0.799922 -0.539154 0.262333 
0.026500 0.119344 -0.003203 -0.547934 -0.740728 0.387922 
-0.049498 0.112181 -0.017405 -0.081531 -0.481293 0.871793 
-0.023645 0.056321 -0.030401 0.544760 0.424774 0.722953 
-0.050475 0.139453 0.019297 -0.875955 -0.376671 -0.297863 
-0.009760 0.128123 -0.001162 0.214581 -0.931366 0.293929 
-0.078495 0.135853 0.050631 0.141548 -0.489111 -0.860096 
-0.058394 0.147739 0.033778 -0.898976 0.100942 -0.423830 
-0.035032 0.086710 -0.024363 0.456837 0.063293 0.879445 
0.020490 0.121815 -0.005639 -0.444397 -0.760639 0.472717 
0.000708 0.038936 -0.002742 0.143655 0.975368 0.144574 
-0.045073 0.130156 0.018994 -0.883162 -0.433278 -0.174689 
0.000325 0.064597 -0.034368 -0.118454 0.040440 0.991826 
-0.084945 0.101193 -0.000305 0.896119 -0.175969 0.406814 
-0.084288 0.088185 -0.003865 0.842508 0.145827 0.515310 
-0.023228 0.054216 -0.029532 0.533328 0.357756 0.765986 
0.006812 0.038049 0.027711 0.454351 0.688509 -0.554170 
-0.020806 0.081594 -0.039007 0.110339 -0.040716 0.992588 
-0.042343 0.162722 0.004896 -0.567879 -0.009160 -0.814733 
-0.055106 0.159010 0.007471 0.362420 -0.741614 -0.559176 
-0.068714 0.171922 -0.055263 0.819950 0.242326 0.517821 
-0.034021 0.059327 0.038992 -0.414141 0.233744 -0.879352 
-0.023027 0.092206 0.050718 0.681648 -0.527453 -0.505430 
-0.022832 0.044278 0.053279 0.043962 -0.368280 -0.920091 
0.001231 0.128113 0.028323 -0.020621 -0.846474 -0.531946 
-0.055942 0.153498 0.026614 -0.549308 -0.798029 -0.229857 
0.034475 0.107654 -0.007487 -0.734504 -0.495225 0.462785 
-0.086425 0.080589 0.014409 0.927845 0.367399 -0.031481 
0.003693 0.114466 0.040710 -0.167362 -0.410453 -0.895985 
-0.084355 0.082152 0.024282 0.939885 0.315821 -0.126822 
0.041779 0.062124 0.029140 -0.248459 -0.349539 -0.892765 
-0.026050 0.175028 -0.019036 0.549841 -0.087820 0.830277 
-0.015524 0.049345 -0.030814 0.155714 0.464138 0.871708 
-0.080970 0.146051 -0.000557 0.754488 -0.182409 0.629804 
-0.078609 0.164570 -0.028872 0.979303 -0.096791 -0.127204 
-0.055421 0.065105 0.034088 0.161363 0.811251 -0.561609 
-0.006022 0.038993 -0.013302 0.015539 0.966836 -0.232767 
-0.075323 0.163304 -0.034896 0.610869 0.669054 0.411263 
-0.047717 0.071399 0.040773 0.395338 0.404419 -0.822255 
0.034588 0.066321 -0.015865 -0.753562 0.149644 0.638441 
-0.070838 0.148917 -0.037729 0.058035 0.975141 0.192633 
-0.073529 0.066743 0.001580 0.631115 0.677488 0.367731 
-0.003546 0.101449 0.044124 0.039149 -0.521694 -0.847940 
-0.015305 0.092019 0.055712 0.199150 -0.432279 -0.875755 
-0.089840 0.134619 0.034424 0.996147 -0.070603 0.047610 
-0.071717 0.157117 -0.040205 0.989816 -0.005636 0.140528 
-0.030874 0.083795 -0.031408 0.839903 -0.256501 0.476124 
0.045939 0.067523 0.001081 -0.092053 -0.603830 0.783640 
-0.073014 0.155189 0.027661 0.088439 -0.960968 -0.261549 
0.011724 0.103928 0.045486 0.048042 -0.710715 -0.699446 
-0.025721 0.057096 -0.029005 0.697617 0.357686 0.615851 
-0.009416 0.038360 0.016701 -0.033507 0.999388 0.007542 
-0.046049 0.160348 -0.008335 0.544105 -0.038597 0.837175 
0.016788 0.086142 -0.028705 -0.511760 -0.127863 0.848708 
-0.050786 0.033576 0.018661 -0.139027 0.986992 0.072547 
-0.073390 0.164665 -0.016635 0.318221 -0.839645 -0.434180 
-0.008444 0.096594 -0.031099 -0.012618 -0.844624 0.534817 
-0.031868 0.034407 0.022602 -0.413944 0.890283 -0.126054 
-0.026340 0.093623 -0.028079 0.525133 -0.786957 0.321790 
-0.006158 0.061765 -0.035250 -0.078384 0.220253 0.971462 
-0.020423 0.107051 0.041988 0.098850 -0.394263 -0.912996 
-0.071802 0.160050 -0.040905 0.962168 0.143754 0.228164 
-0.066329 0.033470 -0.001776 0.027172 0.999265 0.025764 
-0.037680 0.072013 0.042024 -0.019121 0.054373 -0.997770 
0.001275 0.094722 -0.031867 -0.227188 -0.629248 0.733928 
-0.089921 0.112516 0.011862 0.629687 0.759800 0.158869 
0.026088 0.080483 -0.024041 -0.626113 -0.070243 0.776473 
0.031513 0.104006 0.035768 -0.588148 -0.358368 -0.724071 
0.033384 0.035591 0.011637 -0.282376 0.956960 -0.034857 
-0.089211 0.100419 0.016751 0.976483 -0.200317 -0.062255 
-0.082562 0.108391 -0.000232 0.848279 -0.276946 0.449825 
0.039894 0.071774 0.032727 -0.841247 0.041414 -0.538078 
-0.094617 0.122648 0.020634 0.996440 0.056562 -0.028174 
-0.020398 0.052034 0.045888 0.655520 0.071476 -0.725438 
-0.085343 0.138546 0.044190 0.645597 -0.481584 -0.591594 
0.038328 0.064430 -0.010574 -0.814019 0.237803 0.528945 
-0.056786 0.048244 0.033707 0.294125 -0.952089 0.075670 
-0.000029 0.072898 -0.035410 -0.168112 0.207830 0.962834 
0.013430 0.039484 0.044573 -0.163531 0.079173 -0.983311 
-0.083731 0.154105 0.014747 0.335689 -0.938665 0.076722 
-0.020508 0.184630 -0.014035 -0.679181 -0.311821 -0.649148 
-0.045059 0.129692 0.004403 -0.528829 -0.813350 0.217238 
0.042004 0.098206 0.023900 -0.878922 -0.382374 -0.284320 
-0.014130 0.037083 -0.017114 0.120783 0.569245 -0.808190 
-0.009227 0.108975 -0.022044 0.215338 -0.388889 0.892195 
-0.067314 0.110603 0.038521 -0.330887 0.697968 -0.601431 
-0.068933 0.043060 0.004584 0.759881 -0.647711 0.043817 
-0.051788 0.122691 0.034857 -0.762659 0.002888 -0.645445 
0.043417 0.081739 -0.003640 -0.943210 0.029483 0.327038 
-0.082370 0.154621 0.016204 0.295853 -0.954632 0.028520 
-0.016276 0.069945 -0.038346 -0.019596 0.164993 0.984932 
-0.073061 0.155585 -0.031643 0.989724 -0.042065 0.130616 
-0.083517 0.082409 0.028436 0.885463 0.251580 -0.385427 
0.020862 0.126379 0.007540 -0.470255 -0.877645 0.091643 
0.044078 0.095565 0.017768 -0.960151 -0.256773 -0.109588 
0.048896 0.052847 0.030024 -0.579775 0.335871 -0.741397 
-0.036254 0.064616 0.041297 -0.283368 0.106696 -0.952423 
0.023752 0.039746 -0.005258 -0.467043 0.651143 0.594694 
0.001454 0.054308 0.053908 -0.309379 0.189998 -0.928147 
-0.007158 0.038730 0.000429 -0.023752 0.998817 0.041799 
-0.052784 0.043704 0.045023 -0.161994 -0.587147 -0.788685 
-0.073639 0.173854 -0.038873 -0.009163 -0.893728 -0.430665 
-0.029755 0.121456 0.025399 -0.104206 -0.885957 -0.440946 
0.022604 0.047573 -0.020150 -0.444448 0.646828 0.614971 
-0.005474 0.108044 0.043712 -0.026204 -0.279839 -0.957963 
-0.050330 0.142808 0.001986 -0.734288 0.443209 0.491674 
-0.043400 0.114121 -0.016109 -0.000709 -0.311551 0.948272 
-0.010930 0.099171 0.048837 0.233250 -0.899247 -0.367688 
-0.062998 0.158801 -0.042509 -0.941430 0.307021 0.133902 
0.030692 0.045664 0.031953 -0.697251 0.465452 -0.544136 
-0.000956 0.094839 0.054789 -0.079861 -0.459869 -0.883929 
0.042079 0.067570 0.027959 -0.811915 0.046841 -0.579528 
-0.056195 0.066496 0.035678 0.191762 0.748731 -0.633950 
-0.056729 0.042887 -0.007819 0.306457 -0.537628 0.785114 
-0.016654 0.186730 -0.022341 -0.174661 -0.885165 0.183380 
-0.054494 0.145638 0.027931 -0.945725 -0.173266 -0.272252 
-0.059876 0.155850 0.011401 0.021342 -0.998037 -0.032710 
-0.080100 0.071324 0.008810 0.718668 0.686317 0.105616 
-0.025419 0.039211 -0.029162 -0.124047 0.032984 0.991590 
-0.086100 0.152250 0.024655 0.445345 -0.856277 -0.259894 
-0.029490 0.054087 -0.021300 0.928284 0.064446 0.362080 
-0.068486 0.171551 -0.037400 -0.490906 -0.838023 -0.233443 
-0.038063 0.124718 0.023482 -0.000676 -0.896147 -0.440600 
-0.064604 0.103254 -0.016947 0.483644 -0.270460 0.829188 
-0.081621 0.154079 0.010107 0.310499 -0.932127 0.184707 
0.020881 0.120913 0.031868 -0.383203 -0.679624 -0.624699 
0.002539 0.122328 -0.011418 0.146315 -0.761502 0.630909 
0.009097 0.065501 -0.031671 -0.342707 -0.040618 0.935495 
-0.061106 0.033716 0.012553 0.045133 0.998509 -0.029896 
-0.065924 0.060040 0.015179 0.330941 0.932876 -0.134562 
-0.011539 0.058756 0.053683 0.367317 0.443594 -0.817242 
-0.018440 0.184122 -0.016935 -0.833633 0.051771 -0.543831 
-0.000375 0.035450 0.015425 0.603190 0.775721 -0.161706 
0.038912 0.079267 0.034855 -0.795563 0.037743 -0.603907 
-0.058094 0.128497 -0.006805 -0.342058 -0.138774 0.929252 
0.013493 0.038324 0.044487 -0.186848 0.119954 -0.974233 
-0.013459 0.038434 0.024536 -0.011141 0.999012 -0.042476 
-0.089945 0.114151 0.041338 0.696478 0.639176 -0.325630 
-0.020722 0.038708 -0.012540 -0.024101 0.999607 0.012818 
0.006170 0.038896 0.033796 0.267507 0.833201 0.445426 
-0.084626 0.094320 -0.003497 0.859516 -0.166886 0.480790 
-0.018402 0.159460 -0.010669 -0.228994 0.926367 0.278923 
-0.089549 0.137940 0.036409 0.974788 -0.157855 -0.154259 
-0.030543 0.035317 0.009425 -0.682132 0.658283 0.317713 
-0.048373 0.048428 -0.009243 0.317811 -0.133118 0.937932 
-0.063994 0.154493 -0.038778 -0.858874 0.459234 0.224524 
0.030677 0.060334 -0.018362 -0.624610 0.353357 0.693989 
0.004346 0.045785 0.047975 0.021685 0.861389 -0.506566 
-0.087841 0.113733 0.027690 0.576219 0.815090 -0.039683 
-0.060752 0.045932 0.039903 0.555384 -0.753624 -0.350669 
-0.033115 0.159602 -0.013074 0.093688 0.523925 0.846439 
0.030420 0.078815 -0.020772 -0.557946 -0.157081 0.814008 
0.013062 0.068153 0.053447 -0.407152 0.076046 -0.909335 
-0.065364 0.173778 -0.060437 0.667236 0.122542 0.732904 
-0.018924 0.061410 0.049948 0.788200 0.110990 -0.603928 
0.049253 0.072887 0.017325 0.117894 -0.952530 -0.268438 
-0.054837 0.133293 -0.004631 -0.380946 -0.355098 0.852215 
-0.058928 0.112972 -0.015349 0.316792 -0.466351 0.825742 
-0.038904 0.043518 0.041436 0.096025 -0.381946 -0.880738 
-0.004611 0.124247 0.033629 0.027995 -0.807157 -0.589078 
0.000830 0.076350 0.057740 -0.481002 0.004881 -0.872607 
-0.023438 0.062285 -0.033387 0.572676 0.282922 0.769110 
-0.001084 0.073528 0.058217 -0.305633 0.242402 -0.917057 
-0.078641 0.153579 0.003786 0.432959 -0.863865 0.254525 
-0.085046 0.113118 0.045485 0.337857 0.703766 -0.621774 
-0.064219 0.136221 0.039380 -0.882656 -0.094030 -0.458468 
-0.028291 0.039197 -0.029607 -0.189480 -0.028487 0.981362 
-0.028428 0.168921 -0.017679 0.310884 0.222603 0.923306 
0.016708 0.076764 -0.028953 -0.488747 0.038640 0.871533 
0.012719 0.091974 0.052414 -0.374557 -0.433117 -0.818025 
0.059112 0.055207 0.015724 -0.936104 0.343168 -0.076417 
0.008945 0.078017 -0.033223 -0.535174 -0.078950 0.840657 
-0.047526 0.134893 0.016897 -0.857340 -0.499380 -0.121790 
-0.086523 0.088884 0.025719 0.836704 0.261468 -0.480594 
-0.024546 0.106981 0.041208 0.256958 -0.460846 -0.849223 
-0.016943 0.128439 0.014714 0.265562 -0.962521 -0.054278 
-0.036188 0.126265 -0.002024 -0.331747 -0.902009 0.275653 
0.052213 0.061242 -0.003122 -0.400223 -0.339911 0.846683 
-0.067355 0.136381 -0.008193 -0.046905 -0.115793 0.991563 
0.010045 0.075883 -0.032520 -0.623881 -0.000663 0.780984 
0.001532 0.048053 -0.029559 -0.187853 0.520968 0.830811 
-0.075495 0.075591 0.033224 0.689300 0.440043 -0.575381 
-0.040147 0.034999 0.022306 -0.219806 0.958148 0.181097 
-0.025376 0.065224 -0.032892 0.662163 0.326424 0.672292 
-0.018117 0.038785 -0.011418 -0.032584 0.999214 0.020733 
-0.069976 0.159548 -0.048499 0.974306 -0.015525 0.224201 
0.003724 0.130645 0.002275 -0.024394 -0.969957 0.240896 
-0.054859 0.067042 -0.011595 0.158492 0.790615 0.589536 
-0.016870 0.038327 0.007594 -0.009742 0.999676 0.021460 
-0.044689 0.033626 -0.019556 0.241783 0.963351 0.063275 
-0.078350 0.093305 0.036126 0.740041 -0.106295 -0.663449 
-0.077141 0.155502 0.023025 0.168973 -0.978039 -0.120860 
