ply
format ascii 1.0
comment VCGLIB generated
element vertex 718
property float x
property float y
property float z
property float nx
property float ny
property float nz
element face 0
property list uchar int vertex_indices
end_header
-0.03543571 0.1221761 -0.006739455 -0.794454 0.4215389 -0.4372046 
0.04528334 0.1397422 -0.003365424 -0.2026227 -0.2480569 -0.9473183 
-0.0001189929 0.1121904 0.0004928948 -0.2978378 -0.002302677 -0.9546137 
-0.07973636 0.06864135 0.009418231 0.6896171 0.4010744 -0.6029657 
-0.03230443 0.1334637 -0.00464285 -0.6482096 0.1495133 -0.7466393 
0.00970841 0.1564871 -0.01966142 -0.05828115 -0.7680024 -0.6377896 
-0.06085054 0.1044704 -0.02256933 -0.04653077 0.0242037 0.9986235 
-0.07530298 0.05850779 0.001883288 0.6384261 0.7338984 -0.2319597 
-0.07097436 0.07063027 -0.02168623 0.4701471 -0.3911963 0.7911556 
0.03445482 0.09889518 0.01524393 0.8521156 0.07444856 0.5180313 
-0.02920364 0.166058 -0.03432587 -0.7131717 -0.2199067 -0.665603 
0.03688863 0.0940553 -0.03456659 -0.1652053 0.06862094 0.9838691 
0.05485025 0.06993832 -0.02319074 -0.7549396 -0.2732304 0.5961637 
0.07143907 0.08726748 -0.0009383856 0.4198009 0.2590708 0.8698561 
-0.08155973 0.1770473 0.006768848 -0.5783207 -0.5397006 -0.6117749 
-0.02365465 0.1013877 -0.002165001 0.6300664 -0.5360559 -0.5618367 
-0.03006059 0.09023509 0.006776098 -0.05213898 -0.6310281 -0.7740059 
-0.04182641 0.05480539 -0.01444039 -0.1024733 0.8473359 -0.5210769 
-0.02582212 0.07537054 0.01265714 -0.7032958 -0.6231023 -0.3422258 
-0.01035489 0.08055985 -0.02955699 -0.3933126 0.3374041 0.8552565 
-0.03258577 0.1475167 -0.001956126 -0.3820288 0.3551535 -0.8531823 
0.03470243 0.07869843 0.006378586 -0.6932501 -0.7195053 0.04143159 
-0.002235787 0.1514758 -0.02008137 0.6345655 -0.7047353 0.3172927 
0.05124905 0.06422894 0.0239717 0.2810756 0.08766633 -0.9556731 
0.03620293 0.105209 -0.0339385 0.2577206 -0.203314 0.9445865 
-0.02056568 0.09688165 -0.03104864 0.4603977 -0.1943595 0.8661745 
0.07012329 0.1154669 -0.001022417 0.3972252 -0.5727486 -0.7170573 
-0.065435 0.05585487 0.008019306 0.2193424 0.866235 -0.4489163 
-0.08425103 0.0644159 -0.03300811 0.905557 -0.3224906 0.2756198 
-0.044759 0.1027697 -0.006729647 -0.8315641 0.005041269 -0.5554059 
-0.01941078 0.06441203 0.02117287 -0.1194389 -0.8176483 -0.5631924 
-0.06936996 0.06148422 -0.02889503 -0.3272743 0.9380762 0.1135992 
0.02242855 0.09471791 -0.03068534 0.6002181 -0.3763015 0.7057871 
0.001548013 0.1082367 -6.209245e-05 -0.5135422 0.04951817 -0.8566343 
-0.06746255 0.065911 0.02459076 0.9863555 -0.1469061 0.07430607 
-0.05914517 0.175625 0.00560786 -0.2652571 -0.4943402 -0.8278082 
0.04098708 0.06894426 -0.03888348 -0.1714473 -0.5303971 0.8302317 
0.02110656 0.06200905 -0.02613773 0.5026496 0.5509347 0.666194 
-0.03391139 0.09850799 -0.01402023 0.7374382 -0.5208023 0.4300581 
-0.03809015 0.1712888 -0.03715035 0.1985062 -0.1647642 0.9661512 
0.05502708 0.07100588 -0.02247672 -0.7885768 -0.4365999 0.433044 
-0.09335487 0.1428174 0.003923309 0.2663333 0.9441344 -0.1941048 
-0.0267774 0.09428106 -0.02795859 0.6032267 -0.4186874 0.6788361 
0.06036364 0.125757 -0.009692401 -0.8168068 -0.046808 -0.5750093 
-0.0241343 0.1316913 -0.02274125 -0.4356034 0.431105 0.7901887 
-0.06157001 0.1806685 -0.007999565 0.1129316 -0.9852879 -0.1282742 
-0.02644519 0.1033134 -0.02032322 0.7955201 -0.4552489 0.3998703 
0.02545117 0.09140483 -0.0335681 0.3915235 -0.2044404 0.8971697 
-0.04826662 0.1800525 -0.03516955 0.5428277 -0.8061377 0.2355423 
0.07978698 0.0823973 0.001124316 -0.8013241 0.2890019 0.5237916 
-0.03954001 0.1453868 -0.03371994 0.3478543 0.7401241 0.5755118 
-0.02762964 0.1859374 -0.01996062 -0.03478776 -0.8028712 -0.5951366 
0.02100855 0.1002837 -0.01541289 0.8109086 -0.5267977 -0.2547772 
-0.0563107 0.09927024 -0.02120328 -0.3309463 0.02557148 0.943303 
0.05922551 0.1119298 -0.009982742 -0.4264871 0.1119318 -0.8975411 
-0.06949274 0.07402565 0.01608709 0.686838 0.06494213 -0.7239034 
0.05963501 0.1275673 -0.008891735 -0.8071542 -0.1083908 -0.5803047 
-0.04204046 0.0734914 -0.0320004 -0.5917705 -0.6562071 0.4681878 
-0.06630526 0.05740922 0.02478383 0.8862326 0.4208345 0.1936237 
0.04577965 0.07607857 0.01203903 0.207814 -0.9394633 -0.2724373 
-0.069632 0.06861629 -0.03317919 0.05748957 -0.8425589 0.5355274 
0.02686383 0.06699257 -0.04703515 0.3324461 -0.1159418 0.9359685 
0.06343563 0.1413471 -0.01730537 -0.8291633 -0.4768288 -0.2917578 
-0.08921557 0.1723942 -0.006515013 0.08124689 -0.6510456 0.7546778 
-0.02611511 0.1651352 -0.03707431 -0.679341 -0.3560635 -0.6416499 
0.04313162 0.07880705 0.0004328632 -0.1924866 -0.9644977 -0.1808125 
-0.08429731 0.1007021 -0.0009658962 0.8955327 -0.3774818 -0.2356454 
-0.08372745 0.07185351 0.003873743 0.900295 0.2458488 -0.3592039 
-0.05653847 0.05331327 -0.01386557 0.07538104 0.9933465 0.0870664 
-0.02195435 0.09430388 0.004471281 0.145565 -0.4742839 -0.8682544 
0.03601414 0.1166788 -0.03060513 0.6388344 -0.0758839 0.7655928 
0.08643244 0.1315124 -0.01466628 -0.3900083 0.3263233 0.8610497 
-0.08095067 0.06636752 -0.01190009 0.8178014 0.4549186 0.3524911 
0.04753311 0.0555849 0.005831708 0.04558933 0.991447 0.1222882 
-0.003786728 0.07331359 -0.01399682 -0.8300809 0.5406411 0.1366495 
0.05887415 0.1281957 -0.008037729 -0.7745816 -0.1218312 -0.6206292 
-0.08734286 0.1625771 -0.01503846 0.5531688 0.4540614 0.6984501 
-0.03144207 0.1186707 -0.01734135 -0.7181059 0.606431 0.3414169 
-0.05783194 0.1042444 0.01053378 -0.2594689 -0.2882417 -0.9217335 
-0.08333789 0.1044732 -0.006187988 0.9610093 -0.2721942 0.04869921 
0.008028455 0.1458966 -0.03166292 0.3749885 -0.5298654 0.760675 
-0.01008245 0.1916486 -0.02786948 0.1621909 -0.8498738 -0.5014067 
-0.08290616 0.1406798 0.005275575 0.03987572 0.9842011 -0.1725053 
-0.0381903 0.05388467 -0.02664721 0.04816377 0.897482 -0.4384136 
-0.05482376 0.05429222 0.001528529 -0.2011034 0.9438402 0.2621509 
0.007008363 0.1004565 -0.02332022 -0.8428866 0.3493526 0.4092615 
0.02176098 0.15461 -0.02875832 0.1112118 -0.8180585 0.5642803 
0.06347007 0.1082912 -0.01176479 -0.5423037 0.8319939 0.1170158 
0.02395591 0.1568597 -0.02484093 0.02333722 -0.7470576 0.6643496 
-0.1068926 0.158921 0.01053385 0.2256367 -0.9451518 0.2361697 
-0.03992483 0.09479988 -0.006172313 -0.34724 -0.8627962 -0.367433 
0.04782995 0.1128302 -0.03365031 -0.197851 0.05343902 0.9787744 
-0.06012739 0.1532531 -0.01478606 0.5661213 -0.7721676 0.2885547 
0.03272867 0.09741487 -0.03465705 0.1557995 -0.1129652 0.981308 
0.02339997 0.05858643 0.0094206 0.1281444 0.7999132 0.5862745 
-0.07553362 0.1626273 -0.008334719 -0.02675905 0.8694702 -0.4932601 
-0.05730927 0.09040365 -0.02797444 -0.5451102 -0.7848472 0.2947368 
0.01624101 0.06826255 -0.02614953 0.7691661 0.3099911 0.5588283 
0.02088854 0.08768836 -0.03186662 0.5524707 -0.15744 0.8185284 
-0.01789065 0.07428323 0.01489413 0.5772711 -0.6647851 -0.4741508 
0.02433071 0.1038492 -0.02403549 0.7840085 -0.5384383 0.3088931 
-0.02161236 0.1052779 -0.02647026 0.7510832 -0.3535532 0.5575609 
0.03931374 0.1470468 -0.03279965 -0.2901705 -0.3766522 0.8797354 
-0.03219242 0.1795421 -0.02510748 0.1196648 0.3380946 0.9334733 
-0.05731249 0.1783689 -0.02073902 0.06485103 -0.9385463 0.3390062 
-0.0500409 0.1695349 -0.03203274 0.4697731 -0.2215364 0.8545378 
-0.08167122 0.07675627 -0.01663061 0.699836 0.1407321 0.7003029 
-0.01806913 0.1216318 -0.01143351 0.7772617 -0.4361324 -0.4534895 
-0.05786157 0.1438771 -0.02106591 -0.274355 0.763905 -0.5841048 
0.06238635 0.0871598 0.01323843 0.83016 -0.5533328 -0.06824333 
-0.08559898 0.1423302 0.01682658 -0.1063707 0.9469714 0.3032005 
0.01691029 0.06648309 0.0001458361 0.826895 0.496709 0.2636758 
-0.03717977 0.1290139 -0.001937734 -0.5784383 0.1289639 -0.8054672 
-0.030091 0.1609523 -0.001558329 -0.2807532 -0.1440418 -0.9489098 
-0.05276482 0.1808565 -0.0127247 0.03968129 -0.9991944 0.006007558 
0.03383329 0.1123316 -0.03002728 0.6215599 -0.2801896 0.7315444 
-0.009939157 0.06592587 -0.0005902039 -0.7466112 0.4477734 -0.4920069 
-0.05234439 0.1088662 0.007364103 -0.4517632 -0.1669155 -0.8763841 
-0.06274085 0.05377976 0.02990671 0.2584184 0.9187214 -0.2986151 
-0.03365656 0.08561147 -0.02827753 0.3886466 -0.4306341 0.8145601 
-0.01029417 0.09377563 0.004545293 -0.4041074 -0.1693595 -0.8988963 
-0.05351441 0.08812162 -0.02658584 -0.5179608 -0.8138581 0.263347 
0.03328305 0.07308696 0.02650816 0.3341103 0.2938533 -0.895556 
-0.05243325 0.1005173 0.009652058 -0.5241022 -0.3408029 -0.7804936 
0.05786037 0.1273577 -0.02957763 -0.7075175 -0.05771993 0.7043347 
0.04225175 0.08595488 -0.006453964 -0.5590884 -0.03817238 -0.8282289 
-0.03515632 0.0535306 -0.01771666 0.02432449 0.9591165 -0.2819645 
0.04276369 0.1045596 0.0224162 -0.3953083 -0.7928985 -0.4637277 
0.07127367 0.102928 -0.009883197 0.3215882 0.5549524 0.7672084 
0.0506696 0.07887521 0.001931183 0.1647074 -0.9816442 -0.09615767 
0.0292591 0.06278781 -0.04223099 0.4041846 0.8747928 -0.2671563 
0.0742367 0.05977325 -0.006673938 -0.9405808 -0.09509891 0.3259814 
-0.06861985 0.1430956 0.002915664 -0.3644221 0.9168947 -0.1627903 
0.005899652 0.09310655 -0.01431779 -0.9300349 0.3655027 -0.03798534 
-0.02434655 0.1607515 -0.02540251 -0.2148593 -0.1720878 0.9613643 
0.05135133 0.09088276 -0.00983218 -0.7737867 0.3153498 -0.5493712 
0.0005193662 0.09604758 -0.001133724 -0.7256929 0.14657 -0.6722255 
0.05883234 0.07657462 0.02343816 0.3218369 -0.3687671 -0.8720275 
-0.04802135 0.168295 0.003639984 -0.3940128 -0.4166359 -0.8192487 
0.09038319 0.1302706 -0.008856536 -0.2507186 0.2140348 -0.9441024 
-0.04366793 0.1556229 -0.03493307 0.5760451 0.171111 0.7993078 
-0.0280338 0.1086486 -0.01481404 0.9487233 -0.3099251 0.06221491 
-0.08628771 0.08893453 0.0007549104 0.9508862 -0.03102069 -0.3079824 
0.06523171 0.09450415 0.007198909 0.9450431 -0.3002699 -0.1293506 
-0.03996398 0.1132729 -0.01891177 -0.527482 0.5458064 0.651044 
0.0367102 0.06204085 -0.03740741 0.330177 0.8205083 -0.4666362 
0.03251858 0.06902656 -0.04505551 -0.6915887 -0.5333433 0.4870833 
-0.0303966 0.152398 -0.001481721 -0.261557 0.0692642 -0.9626997 
0.0086464 0.05829175 0.01688993 0.4899718 0.8417333 -0.2267437 
-0.0176726 0.1062306 -0.03029123 0.5853269 -0.2557286 0.7694123 
-0.05347422 0.1291402 0.001154437 0.2202388 -0.5309812 -0.8182626 
-0.04884639 0.1505665 0.005126436 -0.3365796 -0.2741091 -0.9008764 
0.04704258 0.07044124 -0.00377138 0.1063771 0.1535867 -0.9823925 
-0.02458856 0.1646159 -0.02127283 -0.8207367 -0.2350101 -0.5207316 
0.01228302 0.1550624 -0.02409938 0.3180377 -0.6425101 0.6971606 
-0.05567562 0.1371885 -0.01039043 0.7831774 -0.583591 -0.2146037 
0.00177734 0.09422752 -0.02693462 -0.6835999 0.3570069 0.6365825 
0.07507586 0.1091495 0.005112496 -0.09606618 -0.6988429 -0.7087947 
0.01244051 0.07367383 -0.01966868 0.9751886 0.04411988 0.216935 
-0.07338095 0.08707609 -0.02839588 0.8225347 -0.07809553 0.5633274 
0.05088704 0.1524581 -0.01754514 -0.3882679 -0.5787814 -0.7171194 
0.05393779 0.1453808 -0.01224596 -0.6375273 -0.6149628 -0.4640902 
-0.08316147 0.06904629 0.00382217 0.8696117 0.3762109 -0.3197511 
0.04016267 0.1035102 0.02614618 0.2568738 -0.7493929 -0.6102673 
-0.08534628 0.1426903 0.01293835 0.1868097 0.9778528 -0.09437209 
-0.04476493 0.07625161 0.03032381 -0.437645 -0.4251245 -0.792298 
-0.03710474 0.1772549 -0.01172447 -0.5381562 -0.7806817 -0.3176856 
-0.01709639 0.1720283 -0.006451628 -0.2945544 -0.05886344 -0.9538201 
-0.0488812 0.09091755 0.0193158 -0.1837363 -0.5545295 -0.8116267 
-0.02554387 0.1586716 -0.02542501 -0.4035904 -0.1281826 0.9059162 
0.06412164 0.05338082 0.006538775 -0.3417836 0.9383638 0.05155047 
0.01519091 0.06195561 -0.01166661 0.9007143 0.4058182 -0.1550008 
-0.07336996 0.1738025 -0.002523874 0.2961996 -0.928398 -0.224373 
-0.002852142 0.1404414 -0.00791042 0.5873631 -0.5909725 -0.5529523 
0.02667552 0.08535756 -0.001507093 0.2299632 -0.7042041 -0.6717243 
-0.06630879 0.06528606 0.01702855 0.8498133 0.500273 -0.1659648 
-0.0342342 0.09002944 -0.02457304 0.5276399 -0.6412467 0.5571346 
-0.03131818 0.1733312 -0.01173649 -0.5195946 -0.8136685 0.2607009 
-0.08708207 0.08883876 -0.00619091 0.9926344 -0.04844049 0.1110434 
-0.04293872 0.1120691 -0.004258834 -0.8280492 0.4162298 -0.375616 
-0.04452301 0.168986 0.00205017 -0.2760239 -0.2901107 -0.9163223 
-0.04176388 0.06210965 0.01389637 -0.03085687 0.4927827 -0.8696052 
-0.1001016 0.174225 -0.003646224 0.9822322 0.05186209 -0.1803616 
-0.01243024 0.1230952 -0.02812841 0.7581704 -0.3249026 0.5653459 
-0.03645729 0.09657961 -0.01359459 0.4900817 -0.630641 0.6017573 
0.07878967 0.1502407 -0.008541852 0.5356066 -0.8320042 -0.14455 
-0.01928538 0.1884816 -0.02505262 0.2233401 -0.9457289 -0.2360425 
-0.05344551 0.05751304 0.0123605 -0.05495646 0.8490278 -0.5254822 
-0.02090525 0.1552524 -0.01172771 -0.3481259 0.008452238 0.9374097 
0.06888858 0.1004639 -0.006508487 0.4299655 0.5313595 0.7299225 
-0.02517373 0.1187446 -0.01553965 0.9387288 -0.3443328 -0.0149404 
-0.02232782 0.187511 -0.02634713 0.3267468 -0.8781708 0.3493605 
0.05766219 0.06947155 -0.006945288 -0.430986 -0.7619684 0.4833791 
0.04206804 0.0773309 0.02550838 -0.7323302 0.500402 -0.4618337 
-0.06895942 0.167128 -0.01878608 0.7016715 -0.04795127 0.7108852 
0.02826951 0.06955376 0.02084445 0.9172812 -0.2673627 -0.2951483 
-0.007809393 0.07853089 0.003361486 -0.6740407 0.2183404 -0.7056889 
0.07293934 0.09565204 0.01619139 0.06535079 -0.5617006 -0.8247555 
-0.05586223 0.08796173 -0.03080384 -0.4701452 -0.7222294 0.507295 
0.03571319 0.05291743 -0.01830324 -0.1013197 0.9750346 0.1975904 
0.01361393 0.06655046 0.005144258 0.2757473 -0.9588497 0.06760684 
-0.09130612 0.1656886 -0.01294366 0.6594588 0.1968927 0.7254981 
-0.02153573 0.1389298 -0.02043746 -0.8445035 0.08337924 -0.5290197 
0.04127366 0.07791676 0.02675085 -0.5771728 0.485748 -0.6564453 
0.02877999 0.1347108 -0.03363356 0.009904491 0.3746547 0.9271116 
0.08929042 0.1427855 -0.005483998 -0.3499121 0.4777556 -0.8057984 
0.03778778 0.1156716 0.006179166 0.0007399846 0.009681823 0.9999529 
-0.06984866 0.05857345 0.00934241 0.4027423 0.7023033 -0.5869997 
0.0544467 0.05506853 0.006130273 0.1239113 0.9909813 -0.05101063 
-0.0346287 0.0551195 -0.01426473 0.09413473 0.9520645 -0.2910529 
0.02355795 0.08642913 -0.003956687 0.4471842 -0.4210103 -0.789162 
-0.05014039 0.1791523 -0.0207689 0.0931282 -0.8707168 0.4828866 
-0.05780734 0.09389025 0.01710219 0.2798357 -0.597856 -0.7511725 
0.03292532 0.06680416 -0.0322486 0.1185189 0.9765678 0.1796348 
-0.04995479 0.05562789 -0.005888919 -0.246883 0.9690288 -0.005664091 
-0.0301213 0.09913494 -0.01062037 0.5257239 -0.5047074 -0.6847517 
0.05395995 0.1387148 -0.02954508 -0.6181345 -0.326241 0.715176 
-0.03582008 0.05437779 -0.0163351 0.03021607 0.9289624 -0.3689387 
-0.06968772 0.1613966 -0.0224281 0.6158531 -0.2132052 0.7584646 
-0.06657389 0.09991032 0.01242072 0.1036105 -0.3010705 -0.9479564 
0.06684764 0.1068721 -0.01057049 0.2644183 0.6488977 0.7134528 
0.03863274 0.0767519 -0.03422154 -0.07366277 0.1517195 0.9856749 
0.06779096 0.1078711 -0.01195673 0.3252194 0.5816945 0.7455628 
0.07440457 0.1436269 -0.007572609 0.1178777 -0.1507092 -0.9815252 
-0.0888548 0.161874 -0.008155482 0.652067 0.7580909 0.01033608 
-0.002594845 0.149046 -0.01906423 0.2160645 -0.6513263 -0.7273859 
0.08496523 0.1276068 -0.01317952 -0.5820788 0.6733568 0.4558233 
0.02477812 0.05866979 0.004035243 0.7242629 0.3760008 -0.577985 
0.04392511 0.1477331 -0.006390666 -0.2783711 -0.5443292 -0.7913377 
-0.06985562 0.06532301 -0.03576243 -0.3456063 -0.03596055 0.9376903 
-0.03642553 0.05307589 -0.02964587 -0.01354595 0.9926186 -0.1205194 
0.02393559 0.1427893 -0.003228656 0.02763927 -0.1164341 -0.9928138 
-0.08238953 0.09484693 -0.01606181 0.742415 -0.1411196 0.6549087 
-0.06605653 0.07450119 -0.03125163 0.5853159 0.372662 0.7200891 
-0.03122636 0.09332289 -0.02365026 0.6369109 -0.5912982 0.4946827 
0.01876759 0.07383993 -0.03819206 0.808031 -0.4664509 0.3598744 
-0.08631226 0.1518832 -0.006182193 0.1856685 -0.9823658 0.02201531 
0.04415866 0.07988162 0.02459277 -0.8662152 0.4686261 -0.1733808 
0.05058065 0.076396 -0.02658246 -0.8371646 -0.2573996 0.4825982 
-0.003810818 0.1215022 -0.03382157 0.2041803 -0.1297707 0.9702938 
0.04059172 0.1052586 -0.03444574 -0.05961701 -0.01244437 0.9981437 
-0.0129666 0.1878552 -0.02466553 -0.3078059 -0.2814853 -0.9088573 
0.06005448 0.05296356 0.003970517 0.07841963 0.995455 -0.05403373 
-0.03967489 0.06437614 -0.03816868 0.08229401 -0.5374035 0.8393003 
0.03124877 0.1548747 -0.01069881 -0.1235111 -0.8905833 -0.4377289 
-0.04613831 0.09275375 0.01240038 -0.5424833 -0.8300086 -0.1296055 
-0.03312628 0.09467342 -0.005622124 0.3374451 -0.9280462 -0.1576743 
0.0001483625 0.08151671 -0.009342669 -0.9239785 0.329702 -0.1938049 
-0.07995207 0.06687178 -0.01482863 0.8948457 0.3122382 0.3189961 
-0.007844266 0.1072565 0.002329372 -0.02053836 -0.1806857 -0.9833264 
-0.02781294 0.09705082 -0.001235544 0.5857702 -0.7084731 -0.3936231 
-0.03498171 0.1660428 -0.0008787448 -0.3516601 -0.02110826 -0.9358897 
0.06007742 0.1368365 -0.02375307 -0.7357443 -0.2690412 0.6215282 
0.04879764 0.05382862 0.01762658 0.1319065 0.833455 -0.5366129 
-0.05827669 0.1603063 0.007053239 -0.1304996 0.9130555 -0.386393 
-0.05969096 0.1064406 0.01036249 -0.1739158 -0.3082582 -0.9352701 
-0.06903948 0.1619031 0.00844501 0.2515398 0.9676138 0.02124504 
-0.102334 0.1420279 -0.0038369 0.7486055 0.1922334 0.6345362 
0.01676489 0.07503834 0.00620975 0.9004759 -0.1339661 -0.4137589 
-0.03628409 0.1761702 -0.008269425 -0.4922901 -0.7624705 0.419868 
-0.04658465 0.1791247 -0.007434711 -0.2012068 -0.9108192 -0.3604499 
-0.03487125 0.1422291 -0.003373969 -0.5397367 0.4009647 -0.7402105 
-0.03178215 0.08628897 -0.02902687 0.4007055 -0.3504401 0.8465382 
0.04175764 0.09294489 0.01465718 -0.3592566 0.2371527 0.9026036 
0.05358601 0.1480522 -0.01561303 -0.444809 -0.5510142 -0.7060654 
-0.05477748 0.1578198 -0.007765763 0.8073161 -0.4730419 -0.3528062 
0.01500614 0.0907501 -0.01911527 0.9169732 -0.3736556 0.1397915 
-0.03033314 0.05814521 0.02376563 0.5030928 0.5395784 -0.6750948 
0.064468 0.07562468 0.0250364 0.001541909 -0.1890283 -0.9819704 
0.01201135 0.1404355 -0.03479698 0.1584019 -0.1364265 0.9779042 
-0.04435506 0.1094411 -0.003557774 -0.8654637 0.3610735 -0.3472728 
-0.05182425 0.1744018 0.003120617 -0.3169189 -0.4829436 -0.816289 
-0.0304815 0.1745969 -0.03929575 0.286953 -0.9411213 0.1787414 
0.04064729 0.05330638 -0.01255227 0.1105432 0.9488126 -0.2958628 
0.04478621 0.07425471 -0.03143316 -0.6061763 -0.007384116 0.7952961 
-0.05575781 0.05504414 -0.003527644 -0.2069182 0.9778497 0.03154054 
-0.04303795 0.09644441 -0.005606144 -0.6553351 -0.600328 -0.4584126 
0.009028146 0.1587011 -0.01981591 0.1891026 -0.8171027 -0.5445946 
0.0574736 0.05296613 -0.002678475 -0.126023 0.9821712 0.1394921 
0.03825934 0.08137926 -0.0002301447 -0.3781679 -0.7484586 -0.5447927 
-0.08535998 0.1506077 0.01530327 -0.410169 -0.7925682 -0.4512174 
0.06083992 0.0544593 0.01784511 -0.2602887 0.8401498 -0.4758131 
0.02833725 0.07056412 -0.04231081 0.3068 -0.5887251 0.7478479 
-0.02769023 0.1673666 -0.03648822 -0.7678106 -0.4132183 -0.4896095 
-0.03954304 0.1573167 0.001583721 -0.4674918 -0.06227927 -0.8818008 
0.02370727 0.1595802 -0.01980199 0.006454635 -0.751038 -0.6602275 
-0.01333023 0.08240869 0.01140402 -0.6003851 -0.4376504 -0.669328 
-0.02567922 0.1329403 -0.01773956 -0.7845747 0.1893534 -0.5904132 
-0.03858595 0.08856447 -0.02200988 0.3296105 -0.8269061 0.4556131 
0.02517542 0.08659095 -0.03426538 0.2920898 -0.04000416 0.9555539 
-0.06367429 0.07016502 0.03245819 0.8424016 -0.5011263 -0.1980703 
-0.08731586 0.1778242 0.008160559 -0.4183096 -0.8797027 -0.2261421 
-0.06595547 0.1432855 -0.006204914 -0.2704979 0.9613513 0.05132769 
0.03849322 0.05377135 -0.01260047 0.1143276 0.9346318 -0.3367383 
-0.04704376 0.1354459 -0.02689389 0.4235723 -0.04140428 0.9049156 
-0.07362781 0.08854825 -0.0277253 0.7994769 -0.2140043 0.5612832 
-0.004268669 0.1383628 -0.02772461 0.6573173 -0.4664344 0.591923 
-0.05935008 0.1195856 -0.02317563 0.3178471 -0.03332398 0.9475562 
0.008616351 0.06192147 0.007950897 0.9741695 0.2135881 -0.0733079 
0.02191008 0.1570344 -0.0166618 0.0321433 -0.8835402 -0.467251 
-0.00943172 0.1320882 -0.0260175 0.7385132 -0.4039994 0.5397989 
0.03889789 0.1222019 0.00661312 -0.7117675 -0.6759221 0.1910929 
0.04487075 0.1309758 -0.03410171 -0.08723498 -0.04071228 0.9953555 
-0.04268642 0.07665572 0.02857636 -0.5792158 -0.5363074 -0.6139084 
-0.003171497 0.07387711 -0.01259 -0.8414189 0.5333212 0.08707887 
-0.03440748 0.1176236 -0.01878332 -0.4447548 0.5106089 0.7358477 
-0.06126495 0.1760272 -0.02458931 0.4013486 -0.5441045 0.736797 
-0.05930831 0.05326551 -0.01173802 0.07255081 0.9936709 0.08575795 
-0.02075315 0.05943711 -0.02322961 -0.4861174 0.5870082 0.6473881 
-0.035692 0.08476088 0.01562032 -0.594715 -0.7345061 -0.3268254 
0.04510333 0.1036214 0.01507835 -0.8849816 -0.1925415 0.423952 
0.05150063 0.09361756 -0.01415441 -0.6740962 0.5629579 0.4781975 
0.01597486 0.1540104 -0.02788678 0.2067443 -0.8057305 0.5550273 
-0.1034267 0.1424778 -0.002129546 0.8044854 0.4125199 0.4273528 
0.0238427 0.06594318 -0.03021805 0.2634443 0.4741841 0.8400872 
0.04861163 0.09789487 0.02104143 -0.9830338 -0.1832632 0.007705539 
-0.09850969 0.1452965 -0.003765973 0.3724243 -0.351181 0.8590531 
0.0411307 0.09170468 -0.03225692 -0.5534588 0.1727548 0.8147634 
-0.003717628 0.1367544 -0.02982968 0.6134671 -0.4363326 0.6582341 
-0.06137454 0.15375 0.00556938 0.3379178 -0.8984338 -0.2804075 
-0.02439176 0.1689256 -0.004812428 -0.2606515 -0.02945487 -0.9649835 
-0.04604585 0.09199338 0.01627713 -0.4703848 -0.8255233 -0.3118482 
0.03379956 0.1229193 -0.008450336 0.7982259 0.1433424 -0.5850543 
-0.07487541 0.08186365 0.01446682 0.3530265 0.006834 -0.9355884 
-0.05329522 0.1807612 -0.01035011 -0.02549722 -0.9964405 -0.08035073 
-0.1046518 0.1562256 0.009611167 0.7363908 0.4947163 0.4615023 
0.07568738 0.06673448 0.01822204 -0.7873058 0.5076873 -0.3498617 
0.01366592 0.07095581 -0.009925775 0.9020181 0.08305245 -0.4236338 
0.04805981 0.08484016 -0.01039786 -0.9121416 0.3988598 0.09438595 
0.01300887 0.07537743 -0.02191075 0.952593 -0.002722791 0.3042354 
0.05574025 0.1019019 -0.01955611 -0.8238664 0.5267084 0.209338 
-0.05540415 0.05798946 -0.03267161 0.4472525 0.893063 0.04902707 
-0.04819424 0.08150636 -0.03096136 -0.6287054 -0.5809988 0.5168849 
-0.05475599 0.1794415 -0.004496189 -0.03974614 -0.9473726 -0.3176564 
-0.03469593 0.0563553 -0.04147509 0.04086154 0.1861195 0.9816771 
0.04009927 0.07641508 0.009341598 0.109492 -0.980413 -0.163713 
0.08470117 0.1458771 -0.008975264 -0.07237802 -0.9923289 -0.1002238 
-0.02263271 0.07322019 0.0108764 -0.0907634 -0.7431516 -0.6629387 
-0.04725254 0.05499051 0.009712554 -0.03392237 0.7971246 -0.6028613 
-0.08218633 0.06875653 -0.01213021 0.8366511 0.4015059 0.3725695 
0.002644367 0.141909 -0.03158871 0.492722 -0.3984211 0.7736186 
0.0003892586 0.09428103 -0.02830622 -0.6361231 0.3590825 0.6829402 
-0.09047374 0.1523032 0.0162281 -0.1842021 -0.8002126 -0.5707272 
-0.004130978 0.08357583 0.0009962992 -0.755906 0.2274931 -0.6138836 
-0.1008877 0.1433993 0.001298308 -0.1068652 0.8829297 -0.4571814 
0.02702162 0.07619228 0.01645491 0.4070931 0.253464 -0.8775142 
-0.02813942 0.05418156 -0.00203752 0.2283418 0.9674539 0.1090557 
-0.0728967 0.06555154 0.0127425 0.4399263 0.357429 -0.8238382 
-0.06932557 0.0627318 -0.03375857 -0.408513 0.7220457 0.5583612 
0.03730559 0.06636709 0.01662682 -0.04925157 -0.03198863 -0.9982741 
-0.07825681 0.09515651 0.01100873 0.5370846 -0.2509609 -0.8053315 
0.05752471 0.06491813 -0.02339579 -0.6844157 -0.5518816 0.4764472 
0.08425078 0.1396627 -0.01573911 -0.2931224 -0.3360632 0.8950647 
-0.03831112 0.1866025 -0.01572853 -0.3850849 -0.3542112 -0.8521996 
-0.06179607 0.09816112 -0.02221366 -0.1195718 -0.1292307 0.984379 
-0.0327599 0.05323805 -0.03931033 -0.1197414 0.8837749 0.4523316 
0.05557463 0.1421393 -0.01077303 -0.6777614 -0.5054657 -0.5339888 
0.01583016 0.0657146 -0.02359308 0.7773982 0.4104007 0.4766796 
-0.01147542 0.1288341 -0.006914829 0.6925297 -0.4761729 -0.5419059 
-0.08026025 0.1399309 -0.009061306 -0.1826606 0.9823499 0.04029655 
0.02776748 0.08700985 -0.002273263 0.2122226 -0.416799 -0.883878 
0.02236573 0.0834969 -0.03324851 0.4180915 -0.02859756 0.9079548 
0.06579681 0.05375487 -0.01260645 -0.003654189 0.9999838 0.004385137 
0.01556634 0.07480466 -0.004165774 0.9840813 -0.08720621 0.154852 
0.006150971 0.0629608 0.01525205 0.87271 -0.2970223 -0.3874983 
-0.03006699 0.05758499 -0.04120268 -0.2104435 0.1273327 0.969278 
-0.07318688 0.1650464 -0.0171952 0.2613484 -0.5387505 0.8009026 
0.008310973 0.1262985 -0.001757419 -0.2912562 0.07092863 -0.954012 
-0.07625872 0.05956908 0.002301191 0.6573916 0.7074624 -0.2594865 
-0.06328166 0.1436373 0.008322909 -0.01070886 0.9390173 0.3437032 
-0.07215212 0.149421 0.01074863 0.0251821 -0.9189094 -0.3936642 
-0.09185316 0.1701938 0.0006579612 0.1012468 0.8230284 -0.5589036 
-0.01890213 0.1072637 -0.02902554 0.6652417 -0.316884 0.6760458 
0.06535262 0.09914305 0.0002149586 0.9414659 -0.2546068 -0.2209463 
-0.07347743 0.1630628 0.009732611 0.1872475 0.9769242 0.1027489 
-0.04772731 0.10305 -0.01787896 -0.5776449 0.4628903 0.6723533 
0.05551878 0.1038351 -0.02440997 -0.8142309 0.4793948 0.3274275 
0.06448294 0.09321191 -0.000412551 0.8055526 0.1201767 0.5802091 
0.05627981 0.07727629 0.02179175 0.4630985 -0.5685241 -0.6799413 
-0.08351595 0.06535625 -0.03729099 0.7372368 -0.6153823 0.2789024 
0.05203911 0.09599469 -0.009674696 -0.3134247 0.1162872 -0.9424661 
0.08089831 0.08513615 0.001125606 -0.7654411 0.3209733 0.557742 
-0.02454879 0.05324944 -0.00114924 -0.06291559 0.9976255 -0.02801847 
0.0713099 0.1205918 -0.004811954 -0.01261767 -0.6535056 -0.7568166 
-0.05445758 0.1753407 0.002910312 -0.1592068 -0.6771307 -0.7184339 
-0.05850706 0.1706707 -0.02793296 0.4399144 -0.156946 0.8842191 
0.04055036 0.1139553 0.00894917 -0.8088948 -0.05395871 0.5854722 
-0.0578751 0.1557468 -0.004732638 0.1954051 -0.9573426 -0.2128661 
0.05521612 0.09874973 -0.01489667 -0.6676044 0.5631477 0.487 
-0.004661526 0.1130749 0.001488507 -0.005175117 -0.1709991 -0.9852577 
-0.02208902 0.18696 -0.02163311 -0.1028132 -0.7354411 -0.6697431 
0.04990332 0.09437716 -0.02214458 -0.8139168 0.5513893 0.1830556 
-0.07744529 0.1622719 0.01055103 -0.252535 0.9605977 0.1160957 
0.002431553 0.1270747 -0.03461208 0.1320416 -0.05586379 0.9896688 
-0.0526888 0.07628561 0.03354595 -0.2572828 -0.7983154 -0.5445164 
-0.01113946 0.1401496 -0.01749497 0.5923049 -0.4208238 -0.6870824 
-0.01836471 0.07044545 -0.03267908 -0.9258905 0.2120336 0.3126797 
-0.03053529 0.1674303 -0.02579529 -0.6107675 -0.469513 0.6375896 
-0.03084163 0.08110312 0.01297501 -0.6616645 -0.6058892 -0.4416994 
-0.0202601 0.1105731 -0.02484116 0.786289 -0.3685456 0.495907 
-0.06188153 0.1290334 -0.0167334 0.7221631 -0.6025987 0.3396399 
-0.03511921 0.1463858 0.0005926146 -0.5273831 0.03241361 -0.8490091 
0.05249889 0.05326369 -0.008270495 -0.2028849 0.9440011 0.2601917 
0.03433871 0.109106 0.01013671 0.9966571 0.0439344 -0.06887998 
-0.05797271 0.07721382 -0.0360518 0.1474396 0.1070712 0.9832586 
0.05107607 0.07656333 -0.004256504 -0.6382329 -0.7340629 0.2319711 
-0.04594922 0.1664981 -0.03529925 0.4153928 0.1786273 0.8919311 
-0.07106598 0.1689547 0.01028794 -0.1767368 -0.922271 -0.3437736 
0.02744675 0.1346385 -0.004013232 0.0293044 0.4364098 -0.8992707 
0.02490443 0.07539528 -0.04055934 0.515904 -0.486055 0.7054031 
0.07382081 0.0628292 0.01444979 -0.792258 0.6010004 -0.1054789 
-0.07398582 0.09736227 -0.02138233 0.4084805 -0.2179784 0.8863573 
0.02837517 0.1027516 -0.006942266 0.5938615 -0.2457448 -0.7661188 
-0.08307073 0.06720378 -0.03080083 0.2363416 -0.77323 0.588437 
0.02101731 0.0957166 -0.009989904 0.6965555 -0.4081711 -0.5900905 
-0.0885354 0.1699284 0.01165653 0.834728 0.5268872 -0.1600596 
-0.0215966 0.1154347 -0.01887719 0.6975295 -0.2061222 0.6862699 
-0.003688267 0.1194932 0.0001093418 0.06373535 -0.195176 -0.9786952 
-0.01539244 0.1079286 0.0007284106 0.3576353 -0.3230095 -0.8762202 
0.03021241 0.07408699 0.01804272 0.9639871 -0.1066988 -0.2436071 
0.01936696 0.1479105 -0.03421295 0.1321535 -0.4026704 0.905755 
0.004185241 0.08997063 -0.01036775 -0.9244391 0.3272925 -0.1956834 
-0.02479609 0.1585922 -0.01833031 -0.9228007 -0.25898 -0.2852513 
-0.09401758 0.1672422 -0.00513128 0.7367948 0.6413884 -0.2139031 
-0.005974751 0.1483664 -0.01952149 0.7704046 -0.475479 -0.4247311 
0.04827558 0.06414706 -0.03379155 -0.4978904 0.4728206 0.7270116 
-0.02904591 0.1508684 -0.02954774 -0.8556831 0.1438035 0.4971186 
-0.02723684 0.1284023 -0.02224603 -0.2527954 0.3842062 0.887964 
-0.08558541 0.07675375 -0.009610429 0.9155433 0.2255284 0.3330425 
-0.003712185 0.1310445 -0.002945489 0.302769 -0.3022774 -0.903858 
-0.06094187 0.1436507 0.01102244 -0.3491297 0.4380733 -0.828372 
0.03975891 0.09976329 0.01219639 0.04782597 0.3509071 0.9351882 
0.04833779 0.08467052 -0.008241523 -0.9293312 0.04981051 -0.3658721 
0.04514117 0.06214825 -0.02986769 0.3730803 0.8894635 0.2639427 
-0.01223098 0.1299715 -0.009870307 0.7325624 -0.5411372 -0.4129443 
-0.06205695 0.1505464 0.008526865 -0.1104157 -0.5077989 -0.8543704 
-0.03634727 0.08710983 0.01051881 -0.4155751 -0.738207 -0.5313641 
-0.0347337 0.09352775 0.0002759653 0.1336805 -0.9735969 -0.1850368 
0.01494708 0.1573016 -0.02337872 0.1199864 -0.5938108 0.795608 
-0.06698538 0.1696585 0.007124151 -0.1499725 -0.9670113 -0.2059068 
-0.05459492 0.1443527 -0.02196098 0.1129192 0.8799001 -0.4615465 
-0.0946482 0.1694894 -0.0009475948 0.693651 0.4495109 -0.5628396 
-0.03241798 0.0528593 -0.0360079 -0.06232191 0.9952531 0.07474728 
0.01553679 0.1516483 -0.03069741 0.2560715 -0.7074545 0.6587378 
-0.007489365 0.1303029 -0.003996823 0.5071797 -0.3966189 -0.765155 
0.02846506 0.09688726 -0.03341437 0.3796443 -0.2673383 0.8856639 
-0.08122634 0.07081033 0.008142348 0.8143474 0.2433856 -0.5268793 
-0.06614754 0.09799455 0.01308615 0.09082531 -0.2768344 -0.9566156 
0.03322379 0.07962753 -0.03472698 0.1623004 0.07583637 0.9838229 
-0.09832902 0.1459768 0.01638355 0.7978054 0.5973253 -0.08190855 
0.03708951 0.155379 -0.02637301 -0.2134547 -0.8002475 0.5603936 
-0.06903077 0.1759691 -0.01904345 0.2329561 -0.874235 0.425963 
-0.02791912 0.1806946 -0.01870287 -0.5041804 0.3279546 -0.7989042 
-0.04594278 0.05523916 0.03262851 0.03379951 0.8018373 -0.5965858 
-0.02520785 0.1498005 -0.02604348 -0.4840144 0.0536046 0.8734167 
0.01568319 0.06444772 0.0155911 -0.04096581 -0.9729338 -0.2274243 
-0.06886943 0.07652774 0.01683494 0.6648989 -0.2594626 -0.7004203 
-0.06547004 0.06045756 0.0131721 0.4090728 0.6469913 -0.6434764 
0.04540366 0.08368856 -0.02157356 -0.948131 -0.2667494 -0.1728947 
-0.08492862 0.06482235 -0.03189133 0.7966171 -0.2812634 0.5350628 
-0.0007452704 0.07969884 -0.0173727 -0.878857 0.4226825 0.2212465 
0.07650214 0.1306996 -0.009856943 -0.06287715 0.2580835 -0.9640744 
-0.02756413 0.1510518 -0.02827636 -0.6988887 0.02392613 0.7148302 
0.08335223 0.1270295 -0.0144239 -0.5914763 0.388364 0.7066323 
-0.06190762 0.1519997 -0.0146392 0.4308179 -0.8909751 0.1433852 
0.06714029 0.1093686 -0.01272372 0.216441 0.5411962 0.8125639 
-0.009119919 0.08406436 0.005074239 -0.5359015 -0.009448198 -0.8442277 
0.002851973 0.1404045 -0.03227875 0.4141289 -0.3484146 0.8408951 
0.07311748 0.08730891 0.02082981 -0.1665491 -0.3835478 -0.9083791 
0.0601667 0.06749938 -0.01717455 -0.6961425 -0.6518009 0.3009006 
0.09339264 0.1360855 -0.007602833 -0.36692 0.248991 -0.8963109 
0.07713203 0.08645484 0.01995683 -0.4428528 -0.3159334 -0.8390873 
0.001872336 0.1394778 -0.004019691 0.2796289 -0.3862057 -0.8790067 
-0.08924992 0.1496557 -0.001114086 -0.03112045 -0.9402105 0.3391694 
-0.04254264 0.1159012 -0.001375238 -0.7337071 0.3893744 -0.5568317 
0.08289632 0.0827391 0.007854388 -0.9591355 0.2589235 0.1140958 
-0.08707623 0.1404888 -0.0001835287 0.1426387 0.9862939 -0.08293785 
0.06918486 0.07513797 0.02437558 -0.09433421 -0.1622214 -0.9822348 
-0.07548007 0.1064052 -0.0189212 0.5110494 -0.2228193 0.8301687 
-0.0831042 0.1040655 -0.004293969 0.9594735 -0.2663657 -0.09197796 
0.0162166 0.06860483 0.004873811 0.9360825 -0.06896856 -0.3449533 
0.01933336 0.05932543 0.008678487 -0.03395175 0.9036916 0.4268359 
0.07369527 0.1462732 -0.01370666 0.1197082 -0.7227463 0.6806672 
-0.03802054 0.07347883 0.02662829 -0.5419889 -0.370235 -0.7544363 
-0.01053815 0.1212322 -0.002273374 0.5113969 -0.3191569 -0.7978797 
-0.001513031 0.13772 -0.03108439 0.5126415 -0.4295742 0.7434143 
0.02889932 0.07542141 -0.04199676 -0.3079334 -0.3827517 0.8710214 
0.01270399 0.1333433 -0.03488823 -0.03546148 0.09240261 0.9950901 
-0.05796854 0.05613757 0.03476386 0.06700881 0.7128018 -0.6981572 
-0.02164577 0.1629794 -0.04439118 -0.3927799 0.4885157 0.7791511 
0.01940574 0.09373215 -0.02760853 0.7831343 -0.4123276 0.4654961 
-0.02531663 0.1360656 -0.01617131 -0.9046984 0.2850994 -0.3166057 
0.04610019 0.08508837 -0.02825468 -0.8812216 -0.4516396 0.139536 
0.04661234 0.07826921 -0.01663779 -0.7708714 -0.5849087 -0.252268 
-0.043176 0.09500583 0.0002006523 -0.4982709 -0.8487929 -0.1768525 
-0.02240416 0.149281 -0.0101758 -0.521176 0.4689859 0.7130413 
-0.1036408 0.1478874 0.005060254 0.9225382 -0.3643292 -0.1272304 
0.03653659 0.09541278 -0.003035666 -0.06440216 0.07555836 -0.9950595 
0.009055928 0.123472 -0.002296779 -0.4721681 0.1939422 -0.8599091 
-0.06192806 0.1800297 -0.01351705 0.221997 -0.9394814 0.2609444 
-0.0355321 0.1648134 -0.001047586 -0.4004475 -0.08227848 -0.9126183 
-0.009905612 0.07334867 0.010702 -0.9500992 -0.2998501 -0.08603213 
-0.009800872 0.106159 0.002600727 0.07222522 -0.2017376 -0.976773 
-0.0807506 0.1508574 0.01017189 0.4726812 -0.8445133 0.2517338 
0.03208939 0.1163232 -0.009094422 0.8506088 -0.329645 -0.4096325 
-0.05183999 0.05356397 -0.01313231 -0.1455651 0.965602 -0.2154613 
0.04768661 0.1000889 0.01811749 -0.9275423 -0.2593281 0.269099 
0.06872471 0.1020164 0.008314108 0.7232664 -0.4535276 -0.5207672 
-0.08119936 0.06296815 -0.003714074 0.8109624 0.5842146 -0.03214522 
0.01500959 0.0706956 -0.007302601 0.922571 0.08305264 -0.3767824 
-0.07176974 0.1672769 -0.01743121 0.5275803 -0.06091163 0.8473186 
-0.08047151 0.08613037 0.01148574 0.5805973 -0.08873592 -0.809341 
-0.07885565 0.1701451 -0.00811756 0.05680758 -0.6466601 0.7606601 
-0.03266535 0.06181367 -0.0404922 0.07188234 -0.3449458 0.9358661 
-0.06387297 0.1627151 -0.004563859 0.1394242 0.9897672 0.03036182 
-0.06560454 0.06239095 0.01493491 0.6825984 0.5993049 -0.4182023 
0.04599906 0.07428291 0.0001022508 -0.3221035 0.1150326 -0.9396898 
-0.08523602 0.159856 -0.006239745 -0.3046235 0.75185 -0.5847445 
-0.0395323 0.05571199 0.009912113 -0.07233123 0.7008664 -0.7096158 
-0.01812162 0.05298839 0.01250721 -0.01419732 0.9942133 0.1064818 
-0.05300535 0.1425844 0.008281161 -0.2050639 0.8748609 -0.4388248 
0.004064655 0.1129031 -0.03344046 -0.3662964 0.2408991 0.898774 
-0.03508847 0.1143685 -0.01564517 -0.6951421 0.7085351 0.1214719 
0.07792573 0.09424478 -0.005387657 -0.301499 0.4171197 0.8573853 
0.03999307 0.1447183 -0.033757 -0.2067569 -0.2923679 0.9336877 
-0.01245429 0.06488753 -0.02021279 -0.6664388 0.5887074 0.4574746 
-0.06175572 0.113083 -0.02249915 0.1928072 0.0002476964 0.9812366 
-0.06129172 0.1604972 -0.01563996 0.01686631 0.8862447 -0.4629104 
-0.07576736 0.08270261 -0.02181387 0.6951547 0.1650771 0.6996496 
-0.06462481 0.1539621 -0.003009402 0.2399779 -0.9689299 -0.05987928 
0.003984923 0.1151125 -0.0009766408 -0.4683459 0.07866017 -0.8800367 
-0.03763606 0.06237063 0.01626443 0.587054 0.7984876 -0.1333611 
-0.02542492 0.09583686 0.002589473 0.2974294 -0.6475682 -0.7015635 
-0.04704496 0.09589721 0.006625966 -0.6621126 -0.6199037 -0.4211014 
-0.05886327 0.08989271 -0.0306004 -0.4262 -0.7303547 0.5337935 
-0.09473215 0.1674186 -0.003462615 0.7492927 0.5409363 -0.3820319 
0.04501108 0.06897484 -0.03801446 -0.6122044 -0.2460379 0.7514461 
0.01214505 0.1097358 -0.01873775 -0.9115955 0.4104117 -0.02357874 
0.07262084 0.07212209 0.02400358 -0.4248825 0.1171613 -0.8976347 
0.01469021 0.07142252 0.0007493673 0.9866486 0.1542978 -0.05212272 
0.05798404 0.06952186 -0.01751338 -0.695181 -0.7049435 0.1406348 
0.05108733 0.1010306 -0.0289457 -0.6670265 0.3774325 0.6423553 
-0.05896064 0.144614 -0.01224844 0.03555979 0.9981853 0.04859852 
0.0754285 0.106018 0.008090733 -0.108596 -0.6750197 -0.7297639 
-0.03563613 0.05508039 -0.02610599 -0.2700831 0.9027665 -0.3347654 
0.03587798 0.06477522 -0.02928652 0.04107792 0.7997014 0.598991 
0.0381557 0.1018282 0.01189258 0.3761535 0.3204569 0.8693768 
-0.0422975 0.1830834 -0.03754005 -0.1512792 0.2522379 0.955767 
0.08267822 0.1286671 -0.01503824 -0.5128861 0.3646686 0.7771516 
0.0825399 0.08334683 0.01410555 -0.9352375 0.0357141 -0.352215 
0.04457309 0.08576091 0.01741809 -0.803564 0.02302573 0.5947728 
-0.08492391 0.1409037 0.005136841 0.1414203 0.9742919 -0.175373 
0.04381929 0.06091541 0.004106232 -0.9618129 -0.03377762 -0.2716157 
0.03190599 0.05795763 0.01685728 -0.7954831 0.4948328 0.3497817 
-0.07416119 0.06019979 -0.01694397 0.337206 0.9319523 -0.1332559 
0.03792065 0.1538262 -0.01122741 -0.2344435 -0.8586981 -0.4557126 
-0.05465278 0.05861218 -0.02374215 0.3292157 0.7355948 0.5920451 
-0.01314648 0.19031 -0.02913977 0.4046091 -0.8291959 0.3856497 
-0.05346459 0.1463553 0.0002987397 0.006653202 0.9980704 -0.06173462 
-0.04345456 0.1615083 -0.03516541 0.511346 0.1001406 0.8535205 
0.04969961 0.0892056 -0.00853112 -0.5338787 0.117153 -0.837406 
-0.046327 0.1625699 -0.03394146 0.4773451 0.1032409 0.8726299 
-0.06449465 0.06087808 0.01783588 0.8202552 0.4670936 0.3301594 
-0.05775458 0.1329745 -0.005414031 0.5307779 -0.7627565 -0.3694284 
-0.05783051 0.1712505 0.00385465 -0.02047668 -0.0888119 -0.995838 
-0.02644584 0.1638003 -0.03650099 -0.6759888 -0.1380595 -0.7238638 
-0.07349239 0.1061085 0.009179652 0.3526595 -0.4186901 -0.8368571 
-0.07132948 0.08274553 -0.03014562 0.7372224 0.1805091 0.651091 
-0.009326282 0.08697151 0.005240067 -0.4454097 -0.0534572 -0.8937296 
0.04439314 0.09736934 0.02787418 -0.5158318 -0.3619849 -0.7764563 
0.03465115 0.0876543 0.01034851 -0.4244012 -0.5846545 0.6914209 
0.01686951 0.1367379 -0.03513842 -0.06315341 0.0603967 0.9961746 
-0.09141397 0.153277 0.0156989 -0.1119643 -0.867663 -0.484381 
-0.0047415 0.07376307 -0.018777 -0.7446002 0.5597703 0.3636313 
0.02750768 0.08489281 0.002597953 -0.1985273 -0.9308476 0.3067732 
0.08080617 0.07560612 0.01036011 -0.9319991 0.353758 0.07894849 
0.07344021 0.115394 -0.000384183 -0.1379157 -0.671576 -0.7279869 
0.01874169 0.06370557 -0.02577069 0.603048 0.5249457 0.6006374 
-0.09188459 0.1500971 0.01893635 -0.04988387 -0.6334674 -0.7721598 
-0.03169838 0.07759933 0.01991332 -0.4330887 -0.4118912 -0.8017355 
-0.02476515 0.1660123 -0.04279679 0.03286792 -0.6851809 0.727631 
0.01192236 0.05960195 0.006814567 -0.02915549 0.9928948 -0.1153682 
-0.05315735 0.1393676 -0.02028442 0.8073722 -0.4069268 0.4272712 
0.06487431 0.0945122 0.004198708 0.9594746 -0.2579446 -0.1134603 
0.0463549 0.05824079 -0.01955403 -0.06099307 0.878401 0.4740165 
0.0002362323 0.1390296 -0.004548233 0.3643017 -0.4535258 -0.8133872 
-0.07727613 0.06146454 0.004325831 0.6469675 0.6929018 -0.3183084 
0.0282628 0.06308516 -0.04483935 0.2628369 0.9372553 0.229062 
-0.08260977 0.1394832 -0.008289218 -0.1009537 0.994582 -0.02480019 
-0.05075088 0.05872465 0.01349423 -0.2794952 0.7668844 -0.5777289 
0.05874067 0.1339745 -0.02646768 -0.7502255 -0.2469803 0.6133208 
0.0005237224 0.08526555 -0.02209962 -0.8213574 0.4359732 0.3678307 
0.05417614 0.115247 -0.003899482 -0.4715949 0.1574923 -0.8676373 
-0.061793 0.1302254 -0.00781557 0.6210101 -0.7739561 -0.1238485 
0.0806411 0.1511163 -0.007169874 -0.08424021 -0.7717036 -0.6303785 
-0.05474052 0.07647829 0.0300801 0.37193 -0.9264452 -0.05802906 
-0.05164675 0.1405013 -0.0220917 0.9498998 0.1395898 0.279652 
-0.07889625 0.06699106 -0.03374442 0.1166105 -0.9926925 0.03104173 
0.06446885 0.09139151 0.01035492 0.9192471 -0.3823863 -0.09362435 
0.06290668 0.07216275 -0.003642822 0.3345368 -0.9081505 0.2516899 
-0.06296124 0.1127109 0.008776851 0.04264804 -0.3527203 -0.9347565 
-0.03750179 0.1741173 -0.03303031 -0.1662719 -0.9584661 -0.2317248 
0.01263137 0.07932074 -0.01978918 0.9696903 -0.09877404 0.2234823 
-0.049026 0.08335575 0.02098797 0.068359 -0.06490571 -0.9955472 
0.003320645 0.1450369 -0.007160783 0.4138092 -0.6500622 -0.6373233 
0.02845096 0.1124244 -0.01546038 0.874867 -0.4588598 -0.1550985 
-0.05496634 0.05510505 -0.006139565 -0.2120435 0.9714218 -0.1066647 
-0.06052533 0.0534713 0.003256999 0.1558396 0.974668 -0.1604255 
-0.06522021 0.09690916 0.0133849 0.09216601 -0.2680112 -0.9589971 
-0.01601145 0.1543308 -0.008219074 -0.6813437 -0.6621013 -0.3120778 
0.05197258 0.09141333 -0.01082732 -0.8019782 0.5730531 -0.1686454 
0.05718931 0.1420228 -0.01325145 -0.7021362 -0.4948676 -0.5119676 
-0.03697577 0.170637 -0.03752139 0.3336823 -0.1138185 0.9357893 
-0.06920002 0.06100263 -0.02491103 -0.38252 0.9174847 0.109088 
-0.05283241 0.0796858 -0.03552247 -0.2907954 -0.2995079 0.9086986 
-0.02315627 0.1746904 -0.04188432 -0.240319 -0.8311999 -0.5013517 
0.04468868 0.08882388 0.02941377 -0.5363806 0.1009354 -0.8379189 
0.03817648 0.06528515 0.01740032 0.3667294 -0.04550824 -0.9292139 
-0.08602977 0.0845613 0.004417347 0.9196741 -0.03900625 -0.3907404 
-0.03609819 0.09342052 5.267849e-05 0.02629816 -0.9840578 -0.1758942 
0.08265138 0.1478855 -0.01124545 -0.6224151 -0.6317229 0.4620885 
0.0220878 0.1433027 -0.03540318 0.007283038 -0.04969773 0.9987378 
-0.02007603 0.1679129 -0.007457758 -0.7596434 0.07213769 -0.6463265 
-0.07911839 0.05853332 -0.02043517 0.02560777 0.9474381 -0.3189129 
-0.02285875 0.1496279 -0.01744166 -0.9734162 -0.06072513 -0.2208471 
0.08446443 0.1442557 -0.01342571 -0.2089939 -0.5468214 0.8107453 
-0.001530056 0.08273439 -0.003122236 -0.8325074 0.2624597 -0.4878999 
-0.08096123 0.1069445 0.001769486 0.8563063 -0.3420298 -0.3869822 
-0.008053323 0.1140773 -0.03367418 0.2786095 -0.09153982 0.9560321 
-0.08528344 0.09390409 -0.01113347 0.9259027 -0.1614811 0.3415086 
-0.08028164 0.05876753 -0.03813051 0.06537466 0.8243734 0.5622585 
-0.02921365 0.05426145 -0.009338148 0.3530493 0.9314907 -0.08764224 
0.03113396 0.0533641 -0.0207382 0.001628167 0.8825194 0.4702732 
0.0705604 0.1329712 -0.01068777 0.5597499 0.00513986 -0.8286457 
-0.01287386 0.1627236 -0.007338972 -0.4271054 -0.1167727 -0.8966299 
-0.09862807 0.1475852 0.01772716 0.9299407 0.1275197 -0.3448899 
-0.06979857 0.07790648 0.01575482 0.4344551 -0.1466813 -0.8886695 
-0.06850643 0.1704009 -0.02182288 0.5704355 0.3895521 0.7230854 
0.0680919 0.1335544 -0.01762583 0.8244025 -0.3047891 0.4769322 
0.008491484 0.06246768 0.01956192 0.7918901 -0.5609319 0.2413824 
0.03352281 0.0554767 0.0228924 -0.1722398 0.9813773 0.08504239 
0.01547083 0.08794896 -0.02382354 0.9059447 -0.2669579 0.3286301 
-0.0004658635 0.07939271 -0.0156473 -0.8976533 0.4166024 0.1437392 
-0.05248275 0.1162265 0.006227506 -0.268464 -0.1929906 -0.9437594 
0.07925031 0.1106587 0.001005119 -0.6408628 -0.5936391 -0.4867109 
-0.03468399 0.179584 -0.01529119 -0.5405319 0.00621767 -0.8413006 
0.007887824 0.09955014 -0.0125061 -0.9416265 0.2712428 -0.1994168 
-0.03866488 0.07336965 -0.02893167 -0.1568087 -0.4196721 0.8940282 
-0.0003434966 0.08011779 -0.009512808 -0.9356713 0.3233066 -0.1413936 
0.01058109 0.1072748 -0.01462086 -0.9360475 0.3002065 -0.1835514 
-0.04545873 0.1671043 0.004311485 -0.3900309 -0.365301 -0.8452403 
0.0368074 0.1285156 -0.03278702 0.3939167 0.3106616 0.8650544 
-0.03628727 0.1740781 -0.0249764 -0.5047739 -0.5791084 0.640185 
0.03513793 0.05291583 0.008070408 0.0875838 0.9869171 -0.135365 
0.06576948 0.1098093 -0.01253192 -0.1383482 0.6286511 0.7652828 
0.02420095 0.1416636 -0.03535303 -0.001791118 0.0432595 0.9990622 
-0.0007767291 0.1236196 -0.000643504 0.006416284 -0.1888263 -0.9819896 
-0.03227748 0.1194027 -0.01403269 -0.7272089 0.240867 -0.6427678 
-0.06786917 0.1251208 -0.005307806 0.6190419 -0.765157 -0.1769802 
0.03096914 0.06472785 -0.02980237 -0.02251265 0.6644309 0.7470106 
-0.03112721 0.1229702 -0.01474755 -0.6925946 0.3040058 -0.6541355 
-0.02054682 0.09598729 0.003983288 0.1870231 -0.441935 -0.8773345 
0.0803025 0.1122367 -0.004026533 -0.9004226 -0.4250267 -0.09269051 
-0.07486932 0.1651163 -0.002561257 0.1986314 0.9759666 -0.08963661 
0.06993368 0.1085304 -0.01344001 0.2049826 0.4927066 0.8457083 
-0.05868213 0.1548083 0.005646985 0.2402078 -0.819047 -0.5210205 
0.04177441 0.06153971 0.007795333 -0.9392766 0.07596397 -0.3346476 
-0.02771677 0.08979511 -0.02929668 0.4784601 -0.3700906 0.7963095 
-0.0768729 0.07125424 -0.0189983 0.5511765 0.05822422 0.8323547 
0.01340248 0.1572265 -0.02334153 0.2665872 -0.5324341 0.803396 
-0.01326748 0.05479325 0.02041546 -0.6213154 0.7483848 -0.2321369 
0.0335529 0.1241048 -0.02927415 0.6710671 0.2460402 0.6993805 
0.06564564 0.1080726 -0.004961909 0.8675359 -0.2234091 -0.4443758 
-0.02602639 0.08049646 -0.03594106 0.5736715 -0.02452697 0.8187183 
0.05197201 0.1435838 -0.008144006 -0.5808885 -0.4868739 -0.6523207 
-0.05701423 0.1554825 -0.02299135 0.5168864 -0.8436876 0.144982 
-0.01736809 0.1827593 -0.02749567 -0.3253771 0.8545225 0.4048718 
0.008211358 0.1516026 -0.01199039 0.4427448 -0.8036539 -0.39764 
-0.04983952 0.1230913 0.004035651 -0.2189721 -0.2335542 -0.9473668 
0.03491861 0.05869883 0.01397912 0.3562567 0.5906594 -0.7240184 
-0.06393369 0.06447461 -0.03403183 0.1267524 0.3750017 0.9183178 
0.07854696 0.09706915 0.01394613 -0.45698 -0.4836488 -0.7464939 
0.03896508 0.06574167 -0.04336933 -0.2443786 -0.7961723 0.553524 
0.05046411 0.07752105 0.009966774 0.3182208 -0.9409839 -0.1152602 
-0.02748464 0.07406643 0.01938283 -0.4678432 -0.4331782 -0.7703761 
0.02428316 0.1365082 -0.00362205 -0.008211386 0.2332584 -0.9723801 
0.05069873 0.07868576 -0.002506987 -0.368925 -0.8801463 0.2987256 
-0.09264509 0.1759919 0.007048204 0.9028747 0.3288112 -0.2769486 
-0.09677446 0.153195 0.0129622 0.413287 -0.512318 -0.7528109 
0.01199509 0.1483843 -0.03188121 0.3412963 -0.549435 0.762652 
0.06063154 0.05848634 0.02187447 -0.1950839 0.6031674 -0.7733896 
-0.06419531 0.1248808 -0.01863546 0.6540954 -0.5257375 0.5438377 
0.04470562 0.1550459 -0.01759414 -0.1643543 -0.5190481 -0.8387949 
-0.08139039 0.140917 0.006056721 -0.02795436 0.9812208 -0.1908519 
0.07273604 0.1164055 -0.001082448 -0.04977444 -0.6910325 -0.721108 
0.03711764 0.05654848 -0.02265105 -0.3068365 0.6099424 0.730631 
0.01000888 0.1056746 -0.01391677 -0.9364276 0.2762867 -0.2162617 
-0.05289321 0.0769418 0.03072182 0.180726 -0.9676818 -0.1758699 
-0.03983386 0.0601208 -0.03955964 0.2122091 -0.2048528 0.9555117 
0.08523379 0.1413785 -0.006011588 0.08426787 0.2688344 -0.9594931 
0.03130408 0.135748 -0.003370127 0.1220318 0.300489 -0.9459464 
0.03945768 0.07472035 0.01228715 -0.07710155 -0.8308657 -0.5511058 
0.04902124 0.06946392 0.02234958 0.4089276 -0.2900553 -0.8652434 
-0.02924917 0.1679476 -0.003078931 -0.4754393 0.03992415 -0.8788422 
-0.07226004 0.0722521 -0.02146748 0.4106142 0.1142727 0.9046202 
-0.06724066 0.1428374 -0.005550224 -0.2787506 0.9594503 0.04187148 
-0.04593889 0.0562485 -0.03828689 0.340523 0.4688557 0.814996 
-0.07989485 0.0584769 -0.0292712 -0.06338485 0.9960109 0.06280758 
0.07978839 0.1412225 -0.01635579 -0.1841088 -0.4179924 0.889599 
-0.006541041 0.09884474 -0.03348167 -0.09468061 0.1605061 0.9824833 
-0.04729594 0.06498169 -0.03743718 0.08123605 -0.4491125 0.8897746 
-0.06774614 0.1253997 -0.007904608 0.6537573 -0.7552456 -0.04696221 
0.01743577 0.1183999 -0.02030019 -0.7970557 0.6031128 0.03093931 
0.07994111 0.08898388 0.01699334 -0.6486824 -0.3157824 -0.692454 
-0.02577996 0.1665463 -0.04196822 0.1155534 -0.6928086 0.7118032 
-0.04978064 0.1486285 0.005933489 -0.385942 -0.2963988 -0.8736112 
-0.0214274 0.09106106 -0.03450191 -0.04268426 -0.5302391 0.8467731 
-0.08609587 0.08813246 0.001921005 0.9379653 -0.0924603 -0.3341739 
